ncols	 229
nrows	 32
xllcorner	 110.641666667
yllcorner	 -7.64999999997
cellsize	 0.00833333333333    
NODATA_value  -9999           
-9999.00000  -9999.00000  -9999.00000  -9999.00000  -9999.00000  -9999.00000    327.00000    310.00000    253.00000    255.00000  -9999.00000  -9999.00000  -9999.00000  -9999.00000  -9999.00000  -9999.00000  -9999.00000  -9999.00000  -9999.00000  -9999.00000  -9999.00000  -9999.00000  -9999.00000    157.00000    162.00000    148.00000    144.00000    128.00000    112.00000    105.00000     92.00000     92.00000     86.00000     80.00000     80.00000     78.00000     77.00000     76.50000     76.50000     78.00000     76.16000     75.78000     76.00000     75.32000     75.50000     75.51000     75.48000     76.00000     78.00000     78.00000     78.00000     77.00000     77.00000     78.00000     78.00000     79.00000     80.00000     81.67000     80.00000     79.00000     80.00000     80.00000     78.00000     80.50000     80.50000     82.00000     82.00000     76.00000     78.00000     76.00000     69.67000     71.00000     72.00000     71.00000     72.00000     73.00000     72.50000     71.25000     74.75000     76.50000     74.00000     73.00000     69.00000     61.00000     59.01000     57.00000     54.00000     54.00000     53.71000     53.71000     52.16000     52.16000     52.00000     52.00000     50.06000     55.00000     55.00000     49.62000     55.00000     58.99000     75.00000     88.00000     84.50000    106.00000    123.00000    116.00000    121.00000    128.00000    122.00000    131.00000    130.00000    117.50000    115.66000    115.68000    131.00000    144.00000    143.50000    142.75000    144.01000    154.00000    169.00000    152.00000    162.00000    177.00000    192.00000    193.00000    198.00000    218.00000    244.00000    261.00000    302.00000    359.00000    279.00000    198.00000    169.00000    203.00000    216.00000    194.00000    233.00000    296.00000    280.00000    196.00000    209.00000    170.00000    145.00000    128.51000    143.00000    129.00000    129.00000    132.00000    118.00000    122.00000    134.00000    133.00000    131.00000    125.00000    134.00000    161.00000    180.00000    161.00000    145.00000    132.00000    133.00000    164.00000    169.00000    218.00000    193.00000    155.00000    168.00000    162.00000    146.00000    159.00000  -9999.00000  -9999.00000  -9999.00000  -9999.00000  -9999.00000  -9999.00000  -9999.00000  -9999.00000  -9999.00000  -9999.00000  -9999.00000  -9999.00000  -9999.00000  -9999.00000  -9999.00000  -9999.00000  -9999.00000  -9999.00000  -9999.00000  -9999.00000  -9999.00000  -9999.00000  -9999.00000  -9999.00000  -9999.00000  -9999.00000  -9999.00000  -9999.00000  -9999.00000  -9999.00000  -9999.00000  -9999.00000  -9999.00000  -9999.00000  -9999.00000  -9999.00000  -9999.00000  -9999.00000  -9999.00000  -9999.00000  -9999.00000  -9999.00000  -9999.00000  -9999.00000  -9999.00000  -9999.00000  -9999.00000  -9999.00000  -9999.00000  -9999.00000  -9999.00000  -9999.00000  -9999.00000  -9999.00000  -9999.00000  -9999.00000  -9999.00000
-9999.00000  -9999.00000  -9999.00000  -9999.00000  -9999.00000  -9999.00000    289.00000    289.00000    250.00000    257.00000    266.00000  -9999.00000  -9999.00000  -9999.00000  -9999.00000  -9999.00000  -9999.00000  -9999.00000  -9999.00000  -9999.00000  -9999.00000  -9999.00000  -9999.00000    166.00000    156.00000    149.00000    137.00000    126.00000    113.00000     99.00000     87.00000     87.00000     82.00000     80.00000     78.50000     77.00000     77.00000     77.00000     77.00000     76.44000     75.78000     75.78000     75.91000     75.92000     76.00000     76.50000     77.00000     79.00000     81.50000     80.25000     80.25000     80.50000     80.00000     80.00000     83.00000     82.00000     85.50000     83.00000     81.67000     81.66000     87.00000     87.00000     88.00000     88.50000     88.50000     88.00000     84.00000     83.00000     78.00000     77.00000     74.00000     76.00000     76.00000     73.00000     72.00000     74.00000     76.00000     74.00000     74.00000     72.00000     69.00000     68.00000     65.00000     62.00000     60.00000     56.00000     55.00000     53.72000     52.79000     52.17000     52.17000     51.52000     51.01000     51.00000     50.06000     50.03000     49.62000     52.00000     56.00000     60.00000     58.99000     69.00000     84.50000     94.00000    101.00000     92.00000    105.00000    119.00000    120.00000    135.00000    122.00000    117.50000    115.66000    130.00000    138.00000    154.00000    153.00000    142.74000    157.00000    166.00000    172.00000    149.00000    174.00000    177.00000    182.00000    191.00000    209.68000    218.00000    218.00000    223.51000    247.00000    288.00000    358.00000    302.00000    192.00000    197.00000    219.00000    206.00000    233.00000    263.00000    215.00000    182.00000    171.00000    151.00000    140.00000    137.00000    147.00000    144.00000    141.00000    150.00000    136.00000    150.00000    165.00000    156.00000    175.00000    143.00000    159.00000    184.00000    221.00000    186.00000    164.00000    167.00000    152.00000    167.00000    186.00000    200.00000    195.00000    168.00000    190.00000    194.00000    202.00000  -9999.00000  -9999.00000  -9999.00000  -9999.00000  -9999.00000  -9999.00000  -9999.00000  -9999.00000  -9999.00000  -9999.00000  -9999.00000  -9999.00000  -9999.00000  -9999.00000  -9999.00000  -9999.00000  -9999.00000  -9999.00000  -9999.00000  -9999.00000  -9999.00000  -9999.00000  -9999.00000  -9999.00000  -9999.00000  -9999.00000  -9999.00000  -9999.00000  -9999.00000  -9999.00000  -9999.00000  -9999.00000  -9999.00000  -9999.00000  -9999.00000  -9999.00000  -9999.00000  -9999.00000  -9999.00000  -9999.00000  -9999.00000  -9999.00000  -9999.00000  -9999.00000  -9999.00000  -9999.00000  -9999.00000  -9999.00000  -9999.00000  -9999.00000  -9999.00000  -9999.00000  -9999.00000  -9999.00000  -9999.00000  -9999.00000  -9999.00000  -9999.00000
-9999.00000  -9999.00000  -9999.00000  -9999.00000  -9999.00000    312.00000    235.00000    250.00000    201.00000    200.00000    231.00000    209.00000  -9999.00000  -9999.00000  -9999.00000  -9999.00000  -9999.00000  -9999.00000  -9999.00000  -9999.00000  -9999.00000  -9999.00000    153.00000    156.00000    156.00000    147.00000    137.00000    122.00000    107.00000     94.00000     85.50000     85.50000     82.00000     80.00000     78.50000     77.13000     80.00000     76.96000     76.95000     76.30000     76.32000     76.72000     76.00000     76.01000     76.01000     77.00000     78.00000     79.00000     81.50000     83.00000     82.00000     83.00000     84.00000     84.00000     86.50000     86.50000     88.00000     85.50000     85.00000     85.00000     91.00000     94.00000     96.75000     96.75000     97.50000     97.00000     93.00000     90.00000     83.00000     84.00000     83.00000     81.50000     81.50000     80.00000     80.00000     83.00000     81.00000     78.00000     77.00000     75.00000     72.00000     69.00000     68.00000     62.00000     59.00000     57.00000     55.00000     53.72000     52.80000     52.87000     52.56000     51.53000     51.02000     51.01000     50.09000     50.03000     54.00000     49.63000     58.00000     62.00000     59.00000     59.00000     63.00000     71.00000     81.00000     96.00000     92.00000    110.00000    126.00000    128.00000    112.00000    112.00000    117.00000    131.00000    143.00000    153.00000    142.00000    136.00000    146.00000    164.00000    180.00000    148.00000    159.00000    181.00000    197.00000    204.00000    215.00000    209.66000    217.00000    223.49000    232.00000    241.00000    262.00000    353.00000    288.00000    206.00000    237.00000    241.00000    243.00000    270.00000    187.00000    165.00000    161.01000    154.00000    147.00000    154.00000    164.00000    148.00000    192.00000    201.00000    176.00000    201.00000    235.00000    239.00000    222.00000    189.00000    164.00000    182.00000    229.00000    237.00000    261.00000    278.00000    236.00000    253.00000    240.00000    218.00000  -9999.00000  -9999.00000  -9999.00000  -9999.00000  -9999.00000  -9999.00000  -9999.00000  -9999.00000  -9999.00000  -9999.00000  -9999.00000  -9999.00000  -9999.00000  -9999.00000  -9999.00000  -9999.00000  -9999.00000  -9999.00000  -9999.00000  -9999.00000  -9999.00000  -9999.00000  -9999.00000  -9999.00000  -9999.00000  -9999.00000  -9999.00000  -9999.00000  -9999.00000  -9999.00000  -9999.00000  -9999.00000  -9999.00000  -9999.00000  -9999.00000  -9999.00000  -9999.00000  -9999.00000  -9999.00000  -9999.00000  -9999.00000  -9999.00000  -9999.00000  -9999.00000  -9999.00000  -9999.00000  -9999.00000  -9999.00000  -9999.00000  -9999.00000  -9999.00000  -9999.00000  -9999.00000  -9999.00000  -9999.00000  -9999.00000  -9999.00000  -9999.00000  -9999.00000  -9999.00000  -9999.00000  -9999.00000  -9999.00000
-9999.00000  -9999.00000  -9999.00000    263.00000    285.00000    245.00000    203.00000    195.00000    169.00000    166.00000    179.00000    193.00000    190.00000    172.00000    166.00000  -9999.00000  -9999.00000  -9999.00000  -9999.00000  -9999.00000    148.00000    152.00000    147.00000    144.00000    144.00000    140.00000    134.00000    124.00000    107.00000     94.00000     84.00000     82.00000     82.00000     80.00000     77.92000     78.00000     77.12000     77.25000     81.00000     91.00000     93.00000     86.00000     77.75000     77.75000     78.00000     81.00000     82.00000     83.00000     85.00000     85.00000     85.00000     87.50000     87.50000     89.00000     89.00000     91.00000     90.00000     90.00000     91.00000     92.00000    100.00000    100.00000    105.00000    105.00000    109.00000    108.00000    103.00000     97.00000     91.00000     95.00000     92.00000     90.00000     90.00000     88.00000     87.00000     90.00000     88.00000     86.00000     80.00000     77.00000     75.00000     71.00000     68.00000     66.00000     61.00000     59.00000     57.00000     56.00000     54.00000     52.87000     52.88000     51.53000     51.00000     50.11000     50.11000     54.01000     53.99000     49.64000     54.00000     59.00000     65.00000     59.01000     62.00000     67.00000     67.00000     78.00000     82.50000    115.00000    130.00000    145.00000    112.00000    130.00000    132.00000    129.00000    130.00000    139.00000    133.00000    116.00000    164.00000    176.00000    166.00000    145.00000    172.00000    193.00000    215.00000    233.00000    251.00000    209.66000    281.00000    316.00000    317.00000    302.00000    283.00000    288.00000    328.00000    230.00000    241.00000    282.00000    286.00000    301.00000    233.00000    212.00000    187.00000    160.99000    167.00000    212.00000    214.00000    195.00000    176.00000    176.00000    236.00000    255.00000    275.00000    272.00000    229.00000    194.00000    199.00000    255.00000    224.00000  -9999.00000  -9999.00000  -9999.00000  -9999.00000  -9999.00000  -9999.00000  -9999.00000  -9999.00000  -9999.00000  -9999.00000  -9999.00000  -9999.00000  -9999.00000  -9999.00000  -9999.00000  -9999.00000  -9999.00000  -9999.00000  -9999.00000  -9999.00000  -9999.00000  -9999.00000  -9999.00000  -9999.00000  -9999.00000  -9999.00000  -9999.00000  -9999.00000  -9999.00000  -9999.00000  -9999.00000  -9999.00000  -9999.00000  -9999.00000  -9999.00000  -9999.00000  -9999.00000  -9999.00000  -9999.00000  -9999.00000  -9999.00000  -9999.00000  -9999.00000  -9999.00000  -9999.00000  -9999.00000  -9999.00000  -9999.00000  -9999.00000  -9999.00000  -9999.00000  -9999.00000  -9999.00000  -9999.00000  -9999.00000  -9999.00000  -9999.00000  -9999.00000  -9999.00000  -9999.00000  -9999.00000  -9999.00000  -9999.00000  -9999.00000  -9999.00000  -9999.00000  -9999.00000  -9999.00000  -9999.00000  -9999.00000
337.00000    296.00000    279.00000    241.00000    201.00000    189.00000    178.00000    169.00000    162.00000    157.51000    156.01000    169.00000    173.00000    166.00000    166.00000    174.00000    172.00000  -9999.00000  -9999.00000  -9999.00000    152.00000    148.00000    143.00000    142.00000    143.00000    143.00000    129.00000    112.00000    103.00000     91.00000     84.00000     81.00000     80.34000     79.00000     77.92000     81.00000     77.50000     80.00000     85.00000     89.00000     88.00000     80.00000     80.00000     78.50000     81.00000     85.00000     87.00000     88.00000     88.00000     89.00000     90.00000     90.00000     93.00000     95.66000     95.68000     97.00000     96.00000     96.00000    100.00000    102.00000    108.00000    111.00000    114.00000    117.00000    119.00000    122.00000    111.00000    107.00000    102.00000    108.00000    101.00000     96.00000    100.00000     94.00000     95.00000     95.00000     93.00000     86.00000     83.00000     80.00000     75.00000     71.00000     69.00000     69.00000     64.00000     61.00000     60.00000     56.99000     57.00000     53.08000     53.00000     51.53000     50.42000     50.13000     50.00000     54.00000     49.75000     49.64000     52.00000     52.00000     61.00000     59.01000     62.51000     64.00000     65.00000     72.00000     82.50000     85.00000    100.00000    100.00000     93.00000     94.00000     99.00000     92.00000     99.50000     99.50000    107.00000    112.00000    116.00000    119.00000    119.00000    115.00000    122.00000    137.00000    150.00000    162.00000    190.00000    190.00000    291.00000    330.00000    376.00000    424.00000    355.00000    300.00000    305.00000    258.00000    290.00000    350.00000    390.00000    430.00000    408.00000    307.00000    209.00000    185.00000    208.00000    270.00000    289.00000    280.00000    209.00000    192.00000    229.00000    234.00000    244.00000    268.00000    242.00000    219.00000    208.00000    250.00000  -9999.00000  -9999.00000  -9999.00000  -9999.00000  -9999.00000  -9999.00000  -9999.00000  -9999.00000  -9999.00000  -9999.00000  -9999.00000  -9999.00000  -9999.00000  -9999.00000  -9999.00000  -9999.00000  -9999.00000  -9999.00000  -9999.00000  -9999.00000  -9999.00000  -9999.00000  -9999.00000  -9999.00000  -9999.00000  -9999.00000  -9999.00000  -9999.00000  -9999.00000  -9999.00000  -9999.00000  -9999.00000  -9999.00000  -9999.00000  -9999.00000  -9999.00000  -9999.00000  -9999.00000  -9999.00000  -9999.00000  -9999.00000  -9999.00000  -9999.00000  -9999.00000  -9999.00000  -9999.00000  -9999.00000  -9999.00000  -9999.00000  -9999.00000  -9999.00000  -9999.00000  -9999.00000  -9999.00000  -9999.00000  -9999.00000  -9999.00000  -9999.00000  -9999.00000  -9999.00000  -9999.00000  -9999.00000  -9999.00000  -9999.00000  -9999.00000  -9999.00000  -9999.00000  -9999.00000  -9999.00000  -9999.00000  -9999.00000
323.00000    258.00000    225.00000    208.00000    195.00000    185.00000    174.00000    167.00000    162.00000    157.50000    156.00000    154.99000    154.98000    148.00000    156.00000    159.00000    166.00000    161.00000    162.00000    159.00000    150.00000    146.00000    140.51000    140.49000    136.00000    120.00000    120.00000    112.00000     98.00000     91.00000     85.00000     81.00000     80.33000     80.08000     80.00000     77.91000     79.00000     80.50000     80.50000     83.50000     81.00000     80.00000     81.00000     82.00000     87.00000     90.00000     91.00000     91.00000     91.00000     93.00000     94.50000     94.50000     95.66000     98.00000    100.00000    101.00000    102.50000    102.50000    110.00000    116.00000    122.00000    124.00000    128.00000    129.00000    132.00000    129.00000    125.00000    111.00000    116.00000    118.00000    111.00000    107.00000    109.00000    102.00000    102.00000    101.00000    101.00000     92.00000     89.00000     83.00000     75.00000     74.00000     70.50000     70.50000     66.50000     65.00000     60.49000     56.99000     58.00000     54.00000     54.00000     52.00000     50.00000     49.90000     49.90000     49.76000     49.66000     49.65000     52.00000     59.00000     63.00000     62.00000     65.00000     62.49000     64.00000     64.00000     71.00000     74.00000     74.00000     76.50000     76.50000     80.00000     84.00000     86.00000     86.00000     86.00000     89.00000     97.00000    101.00000    102.00000    103.00000    106.00000    118.00000    129.00000    127.00000    144.00000    135.00000    150.00000    198.00000    247.00000    296.00000    352.00000    425.00000    414.00000    422.00000    311.00000    316.00000    371.00000    435.00000    477.00000    433.00000    320.00000    245.00000    236.00000    238.00000    223.00000    253.00000    266.00000    251.00000    210.00000    206.00000    244.00000    262.00000    295.00000    285.00000    244.00000    265.00000  -9999.00000  -9999.00000  -9999.00000  -9999.00000  -9999.00000  -9999.00000  -9999.00000  -9999.00000  -9999.00000  -9999.00000  -9999.00000  -9999.00000  -9999.00000  -9999.00000  -9999.00000  -9999.00000  -9999.00000  -9999.00000  -9999.00000  -9999.00000  -9999.00000  -9999.00000  -9999.00000  -9999.00000  -9999.00000  -9999.00000  -9999.00000  -9999.00000  -9999.00000  -9999.00000  -9999.00000  -9999.00000  -9999.00000  -9999.00000  -9999.00000  -9999.00000  -9999.00000  -9999.00000  -9999.00000  -9999.00000  -9999.00000  -9999.00000  -9999.00000  -9999.00000  -9999.00000  -9999.00000  -9999.00000  -9999.00000  -9999.00000  -9999.00000  -9999.00000  -9999.00000  -9999.00000  -9999.00000  -9999.00000  -9999.00000  -9999.00000  -9999.00000  -9999.00000  -9999.00000  -9999.00000  -9999.00000  -9999.00000  -9999.00000  -9999.00000  -9999.00000  -9999.00000  -9999.00000  -9999.00000  -9999.00000  -9999.00000  -9999.00000
278.00000    247.00000    225.00000    205.00000    194.00000    184.00000    174.00000    167.00000    162.00000    164.00000    164.00000    155.00000    168.00000    155.00000    142.67000    142.65000    157.00000    154.00000    157.00000    145.00000    144.00000    147.00000    144.00000    158.00000    154.00000    129.00000    132.00000    117.00000    102.00000     90.00000     85.00000     81.50000     80.17000     80.08000     79.50000     78.75000     82.00000     83.00000     84.00000     86.00000     83.50000     82.00000     84.00000     84.00000     87.00000     94.00000     96.00000     97.00000     96.00000     98.00000    100.00000    100.00000    102.00000    103.00000    105.00000    109.50000    112.00000    112.00000    116.00000    128.00000    136.00000    138.00000    144.00000    146.00000    147.00000    144.00000    139.00000    131.99000    132.01000    132.00000    126.00000    119.00000    119.00000    113.00000    112.00000    108.00000    102.00000     98.00000     91.00000     85.00000     79.00000     77.00000     72.50000     72.50000     71.00000     66.50000     64.00000     60.51000     57.01000     57.01000     55.00000     52.51000     50.00000     49.90000     49.80000     49.77000     49.74000     52.00000     49.90000     55.00000     59.00000     65.00000     67.00000     61.00000     66.00000     66.00000     66.00000     67.00000     70.00000     73.50000     73.50000     76.00000     80.00000     80.00000     78.00000     78.00000     83.00000     90.00000     90.00000     95.00000     95.00000    106.00000    113.00000    114.00000    121.00000    139.00000    123.00000    125.00000    146.00000    182.00000    235.00000    298.00000    374.00000    401.00000    461.00000    432.00000    360.00000    408.00000    486.00000    514.00000    411.00000    347.00000    287.00000    278.00000    299.00000    289.00000  -9999.00000  -9999.00000  -9999.00000  -9999.00000    279.00000  -9999.00000  -9999.00000  -9999.00000  -9999.00000  -9999.00000  -9999.00000  -9999.00000  -9999.00000  -9999.00000  -9999.00000  -9999.00000  -9999.00000  -9999.00000  -9999.00000  -9999.00000  -9999.00000  -9999.00000  -9999.00000  -9999.00000  -9999.00000  -9999.00000  -9999.00000  -9999.00000  -9999.00000  -9999.00000  -9999.00000  -9999.00000  -9999.00000  -9999.00000  -9999.00000  -9999.00000  -9999.00000  -9999.00000  -9999.00000  -9999.00000  -9999.00000  -9999.00000  -9999.00000  -9999.00000  -9999.00000  -9999.00000  -9999.00000  -9999.00000  -9999.00000  -9999.00000  -9999.00000  -9999.00000  -9999.00000  -9999.00000  -9999.00000  -9999.00000  -9999.00000  -9999.00000  -9999.00000  -9999.00000  -9999.00000  -9999.00000  -9999.00000  -9999.00000  -9999.00000  -9999.00000  -9999.00000  -9999.00000  -9999.00000  -9999.00000  -9999.00000  -9999.00000  -9999.00000  -9999.00000  -9999.00000  -9999.00000  -9999.00000  -9999.00000  -9999.00000  -9999.00000  -9999.00000  -9999.00000  -9999.00000
262.00000    237.00000    235.00000    223.00000    195.00000    181.00000    175.00000    168.00000    168.00000    169.00000    171.00000    166.00000    155.01000    144.00000    142.68000    129.67000    129.66000    138.00000    132.00000    129.00000    133.00000    139.00000    146.00000    154.00000    144.00000    137.00000    133.00000    117.00000     98.00000     87.00000     83.00000     81.50000     82.00000     80.00000     80.00000     82.00000     85.00000     89.00000     91.00000     90.00000     89.00000     88.00000     90.00000     91.00000     92.00000     96.00000    101.00000    103.00000    103.00000    104.00000    107.00000    107.00000    110.00000    113.00000    109.50000    113.00000    118.00000    118.00000    128.00000    143.00000    149.00000    160.00000    167.00000    164.00000    166.00000    166.00000    156.00000    147.99000    148.01000    149.00000    143.00000    129.00000    129.00000    124.00000    120.00000    112.00000    110.00000    100.00000     92.00000     89.00000     84.00000     79.00000     74.50000     74.50000     72.00000     67.00000     67.00000     62.00000     58.00000     58.00000     54.00000     52.50000     51.00000     51.00000     51.00000     50.38000     50.32000     51.00000     49.90000     54.00000     56.00000     59.00000     60.00000     59.00000     61.00000     67.00000     67.00000     66.00000     70.00000     71.00000     72.00000     74.00000     76.00000     74.50000     74.50000     75.00000     79.00000     85.00000     85.00000     89.00000     95.00000    100.00000    103.00000    109.00000    118.00000    125.50000    125.50000    120.00000    130.00000    153.00000    184.00000    234.00000    296.00000    367.00000    444.00000    463.00000    486.00000    508.00000    615.00000    549.00000    479.00000    420.00000    351.00000    325.00000  -9999.00000  -9999.00000  -9999.00000  -9999.00000  -9999.00000  -9999.00000  -9999.00000  -9999.00000  -9999.00000  -9999.00000  -9999.00000  -9999.00000  -9999.00000  -9999.00000  -9999.00000  -9999.00000  -9999.00000  -9999.00000  -9999.00000  -9999.00000  -9999.00000  -9999.00000  -9999.00000  -9999.00000  -9999.00000  -9999.00000  -9999.00000  -9999.00000  -9999.00000  -9999.00000  -9999.00000  -9999.00000  -9999.00000  -9999.00000  -9999.00000  -9999.00000  -9999.00000  -9999.00000  -9999.00000  -9999.00000  -9999.00000  -9999.00000  -9999.00000  -9999.00000  -9999.00000  -9999.00000  -9999.00000  -9999.00000  -9999.00000  -9999.00000  -9999.00000  -9999.00000  -9999.00000  -9999.00000  -9999.00000  -9999.00000  -9999.00000  -9999.00000  -9999.00000  -9999.00000  -9999.00000  -9999.00000  -9999.00000  -9999.00000  -9999.00000  -9999.00000  -9999.00000  -9999.00000  -9999.00000  -9999.00000  -9999.00000  -9999.00000  -9999.00000  -9999.00000  -9999.00000  -9999.00000  -9999.00000  -9999.00000  -9999.00000  -9999.00000  -9999.00000  -9999.00000  -9999.00000  -9999.00000  -9999.00000
278.00000    268.00000    259.00000    258.00000    209.00000    183.00000    177.00000    173.00000    174.00000    176.00000    165.00000    151.00000    141.00000    136.00000    129.67000    128.00000    124.50000    123.00000    122.19000    122.21000    124.00000    120.65000    120.65000    119.00000    130.00000    126.00000    121.00000    110.00000     97.00000     88.00000     83.00000     83.00000     80.00000     80.00000     81.00000     85.00000     90.00000     95.00000     94.00000     91.00000     94.00000     94.00000     96.00000     96.00000    103.00000    105.00000    107.00000    110.00000    110.00000    111.00000    113.50000    113.50000    119.00000    122.00000    121.00000    125.00000    128.00000    135.01000    134.99000    156.00000    167.00000    177.00000    188.00000    195.00000    188.00000    192.00000    179.00000    168.00000    168.00000    168.00000    152.00000    152.00000    143.00000    136.00000    126.00000    121.00000    115.00000    105.00000     98.00000     91.00000     86.00000     83.00000     80.00000     77.00000     70.33000     70.33000     70.34000     64.00000     60.00000     59.00000     55.00000     54.00000     52.50000     53.00000     50.97000     50.50000     50.32000     49.92000     49.91000     51.00000     53.00000     57.00000     58.00000     58.00000     60.00000     62.00000     62.00000     65.00000     68.00000     67.00000     69.00000     71.00000     71.00000     72.00000     72.00000     76.00000     79.00000     81.00000     82.00000     84.00000     89.00000     94.00000     99.00000    108.00000    107.00000    118.00000    117.00000    121.00000    141.00000    145.00000    168.00000    192.00000    240.00000    316.00000    385.00000    450.00000    516.00000    579.00000    677.00000    704.00000  -9999.00000  -9999.00000  -9999.00000  -9999.00000  -9999.00000  -9999.00000  -9999.00000  -9999.00000  -9999.00000  -9999.00000  -9999.00000  -9999.00000  -9999.00000  -9999.00000  -9999.00000  -9999.00000  -9999.00000  -9999.00000  -9999.00000  -9999.00000  -9999.00000  -9999.00000  -9999.00000  -9999.00000  -9999.00000  -9999.00000  -9999.00000  -9999.00000  -9999.00000  -9999.00000  -9999.00000  -9999.00000  -9999.00000  -9999.00000  -9999.00000  -9999.00000  -9999.00000  -9999.00000  -9999.00000  -9999.00000  -9999.00000  -9999.00000  -9999.00000  -9999.00000  -9999.00000  -9999.00000  -9999.00000  -9999.00000  -9999.00000  -9999.00000  -9999.00000  -9999.00000  -9999.00000  -9999.00000  -9999.00000  -9999.00000  -9999.00000  -9999.00000  -9999.00000  -9999.00000  -9999.00000  -9999.00000  -9999.00000  -9999.00000  -9999.00000  -9999.00000  -9999.00000  -9999.00000  -9999.00000  -9999.00000  -9999.00000  -9999.00000  -9999.00000  -9999.00000  -9999.00000  -9999.00000  -9999.00000  -9999.00000  -9999.00000  -9999.00000  -9999.00000  -9999.00000  -9999.00000  -9999.00000  -9999.00000  -9999.00000  -9999.00000  -9999.00000  -9999.00000
294.00000    300.00000    270.00000    241.00000    217.00000    192.00000    181.00000    189.00000    193.00000    183.00000    170.00000    148.00000    140.00000    134.00000    132.00000    127.00000    124.50000    121.00000    120.66000    120.65000    120.65000    133.00000    145.00000    118.00000    112.00000    116.00000    128.00000    107.67000     97.00000     87.00000     83.00000     81.00000     82.00000     80.00000     82.00000     90.00000     93.00000     97.00000    100.00000     99.00000    102.00000    107.00000    105.00000    107.00000    114.00000    117.00000    120.00000    121.25000    121.25000    121.50000    120.50000    120.50000    129.00000    132.00000    129.00000    138.00000    144.34000    145.00000    145.00000    160.00000    183.00000    200.00000    209.00000    225.00000    219.00000    212.00000    192.00000    195.00000    192.00000    191.00000    170.00000    170.00000    162.00000    150.00000    139.00000    134.00000    122.00000    113.00000    106.00000     99.50000     94.00000     86.00000     86.00000     81.00000     79.00000     73.00000     69.50000     66.00000     62.34000     61.00000     59.34000     57.00000     56.00000     52.49000     50.97000     50.49000     50.29000     50.19000     50.16000     50.29000     51.00000     55.00000     56.00000     55.00000     58.00000     60.00000     60.00000     62.00000     63.51000     63.49000     66.00000     67.00000     69.00000     70.00000     71.00000     74.00000     77.00000     78.00000     78.00000     81.00000     86.00000     92.00000     94.00000     94.00000     97.00000    114.00000    114.00000    131.00000    146.00000    164.00000    183.00000    189.00000    203.00000    245.00000    310.00000    378.00000    488.00000  -9999.00000  -9999.00000  -9999.00000  -9999.00000  -9999.00000  -9999.00000  -9999.00000  -9999.00000  -9999.00000  -9999.00000  -9999.00000  -9999.00000  -9999.00000  -9999.00000  -9999.00000  -9999.00000  -9999.00000  -9999.00000  -9999.00000  -9999.00000  -9999.00000  -9999.00000  -9999.00000  -9999.00000  -9999.00000  -9999.00000  -9999.00000  -9999.00000  -9999.00000  -9999.00000  -9999.00000  -9999.00000  -9999.00000  -9999.00000  -9999.00000  -9999.00000  -9999.00000  -9999.00000  -9999.00000  -9999.00000  -9999.00000  -9999.00000  -9999.00000  -9999.00000  -9999.00000  -9999.00000  -9999.00000  -9999.00000  -9999.00000  -9999.00000  -9999.00000  -9999.00000  -9999.00000  -9999.00000  -9999.00000  -9999.00000  -9999.00000  -9999.00000  -9999.00000  -9999.00000  -9999.00000  -9999.00000  -9999.00000  -9999.00000  -9999.00000  -9999.00000  -9999.00000  -9999.00000  -9999.00000  -9999.00000  -9999.00000  -9999.00000  -9999.00000  -9999.00000  -9999.00000  -9999.00000  -9999.00000  -9999.00000  -9999.00000  -9999.00000  -9999.00000  -9999.00000  -9999.00000  -9999.00000  -9999.00000  -9999.00000  -9999.00000  -9999.00000  -9999.00000  -9999.00000  -9999.00000  -9999.00000
335.00000    314.00000    291.00000    254.00000    216.00000    194.00000    192.00000    187.00000    192.00000    178.00000    163.00000    150.00000    143.00000    142.00000    132.00000    129.00000    122.00000    121.60000    120.66000    121.08000    123.00000    135.00000    155.00000    143.00000    113.00000    107.66000    107.67000    111.00000     96.00000     87.00000     84.00000     81.00000     83.00000     82.00000     86.00000     90.00000     97.00000    101.00000    104.00000    104.00000    111.00000    116.00000    121.00000    120.00000    126.00000    132.00000    135.00000    136.00000    132.99000    133.01000    136.00000    134.00000    143.00000    147.00000    144.32000    144.34000    162.00000    170.00000    176.00000    176.00000    199.00000    251.00000    236.00000    248.00000    251.00000    246.00000    237.00000    227.00000    222.00000    216.00000    200.00000    200.00000    182.00000    170.00000    159.00000    147.00000    125.00000    125.00000    116.00000    108.00000     99.50000     93.00000     88.00000     82.50000     82.50000     76.00000     69.50000     66.00000     62.33000     60.00000     59.32000     57.00000     56.00000     52.00000     52.00000     51.20000     50.29000     50.19000     50.30000     50.29000     50.55000     51.00000     51.78000     55.00000     56.00000     58.00000     59.00000     59.00000     61.00000     62.00000     64.00000     65.00000     67.00000     68.00000     69.00000     73.50000     73.50000     74.00000     76.00000     77.50000     80.33000     85.00000     85.00000     90.00000     96.00000    101.00000    108.00000    120.00000    130.00000    161.00000    188.00000    202.00000    217.00000    253.00000    254.00000    304.00000    413.00000  -9999.00000  -9999.00000  -9999.00000  -9999.00000  -9999.00000  -9999.00000  -9999.00000  -9999.00000  -9999.00000  -9999.00000  -9999.00000  -9999.00000  -9999.00000  -9999.00000  -9999.00000  -9999.00000  -9999.00000  -9999.00000  -9999.00000  -9999.00000  -9999.00000  -9999.00000  -9999.00000  -9999.00000  -9999.00000  -9999.00000  -9999.00000  -9999.00000  -9999.00000  -9999.00000  -9999.00000  -9999.00000  -9999.00000  -9999.00000  -9999.00000  -9999.00000  -9999.00000  -9999.00000  -9999.00000  -9999.00000  -9999.00000  -9999.00000  -9999.00000  -9999.00000  -9999.00000  -9999.00000  -9999.00000  -9999.00000  -9999.00000  -9999.00000  -9999.00000  -9999.00000  -9999.00000  -9999.00000  -9999.00000  -9999.00000  -9999.00000  -9999.00000  -9999.00000  -9999.00000  -9999.00000  -9999.00000  -9999.00000  -9999.00000  -9999.00000  -9999.00000  -9999.00000  -9999.00000  -9999.00000  -9999.00000  -9999.00000  -9999.00000  -9999.00000  -9999.00000  -9999.00000  -9999.00000  -9999.00000  -9999.00000  -9999.00000  -9999.00000  -9999.00000  -9999.00000  -9999.00000  -9999.00000  -9999.00000  -9999.00000  -9999.00000  -9999.00000  -9999.00000  -9999.00000  -9999.00000  -9999.00000
322.00000    300.00000    270.00000    238.00000    206.00000    190.00000    191.00000    166.00000    175.00000    176.00000    168.00000    163.00000    153.00000    147.00000    132.00000    130.00000    128.00000    122.00000    122.00000    122.00000    126.00000    135.00000    151.00000    147.00000    131.00000    124.00000    103.00000    103.00000    100.00000     88.00000     82.25000     82.25000     85.00000     83.00000     84.00000     87.00000     96.00000    105.00000    112.00000    112.00000    117.00000    116.00000    132.00000    135.00000    140.00000    148.00000    153.00000    156.00000    149.49000    149.51000    159.00000    146.00000    163.00000    166.01000    165.99000    170.00000    180.00000    199.01000    198.99000    204.00000    234.00000    250.00000    262.00000    280.00000    287.00000    251.00000    273.00000    261.00000    256.00000    246.00000    235.99000    236.01000    219.00000    203.00000    170.00000    159.00000    149.00000    140.00000    127.00000    117.00000    102.00000    102.00000     95.00000     89.00000     83.00000     76.00000     74.00000     70.50000     66.00000     62.33000     59.66000     57.00000     56.00000     54.00000     54.00000     52.00000     51.01000     51.01000     50.65000     51.00000     50.65000     50.71000     50.89000     52.00000     53.00000     56.00000     57.51000     58.01000     57.99000     60.00000     63.00000     64.00000     65.00000     67.00000     69.00000     71.00000     71.99000     72.00000     74.25000     77.50000     80.33000     80.67000     85.00000     88.50000     92.00000     94.00000     94.00000    120.00000    135.00000    160.00000    188.00000    214.00000    233.00000    217.00000    241.00000    295.00000    339.00000  -9999.00000  -9999.00000  -9999.00000  -9999.00000  -9999.00000  -9999.00000  -9999.00000  -9999.00000  -9999.00000  -9999.00000  -9999.00000  -9999.00000  -9999.00000  -9999.00000  -9999.00000  -9999.00000  -9999.00000  -9999.00000  -9999.00000  -9999.00000  -9999.00000  -9999.00000  -9999.00000  -9999.00000  -9999.00000  -9999.00000  -9999.00000  -9999.00000  -9999.00000  -9999.00000  -9999.00000  -9999.00000  -9999.00000  -9999.00000  -9999.00000  -9999.00000  -9999.00000  -9999.00000  -9999.00000  -9999.00000  -9999.00000  -9999.00000  -9999.00000  -9999.00000  -9999.00000  -9999.00000  -9999.00000  -9999.00000  -9999.00000  -9999.00000  -9999.00000  -9999.00000  -9999.00000  -9999.00000  -9999.00000  -9999.00000  -9999.00000  -9999.00000  -9999.00000  -9999.00000  -9999.00000  -9999.00000  -9999.00000  -9999.00000  -9999.00000  -9999.00000  -9999.00000  -9999.00000  -9999.00000  -9999.00000  -9999.00000  -9999.00000  -9999.00000  -9999.00000  -9999.00000  -9999.00000  -9999.00000  -9999.00000  -9999.00000  -9999.00000  -9999.00000  -9999.00000  -9999.00000  -9999.00000  -9999.00000  -9999.00000  -9999.00000  -9999.00000  -9999.00000  -9999.00000  -9999.00000  -9999.00000
300.00000    280.00000    267.00000    243.00000    219.00000    187.00000    181.00000    164.67000    161.00000    159.00000    163.00000    155.00000    142.00000    140.00000    128.00000    127.00000    127.00000    121.00000    126.00000    127.00000    136.00000    156.00000    150.00000    148.00000    136.00000    121.00000    105.00000     96.00000     90.00000     85.00000     85.00000     82.50000     85.00000     87.00000     86.50000     90.00000    102.00000    121.00000    129.00000    127.00000    116.00000    132.00000    140.00000    148.00000    153.00000    164.00000    174.34000    178.00000    174.32000    180.00000    176.00000    175.00000    181.00000    186.00000    192.00000    203.00000    205.00000    220.00000    220.00000    227.00000    260.00000    282.00000    288.00000    311.00000    323.00000    318.00000    306.00000    297.00000    289.00000    279.00000    274.49000    274.51000    258.00000    219.00000    199.00000    181.00000    167.00000    152.51000    141.00000    127.00000    119.00000    108.00000    100.00000     91.00000     84.00000     81.00000     77.00000     70.50000     66.00000     64.00000     61.00000     59.68000     58.00000     55.49000     55.51000     55.00000     52.00000     51.01000     50.65000     50.66000     50.66000     50.72000     50.90000     51.41000     51.69000     56.00000     59.00000     57.49000     57.51000     60.00000     60.00000     61.49000     63.00000     66.00000     69.00000     69.00000     70.00000     72.01000     74.25000     75.50000     80.67000     81.00000     85.00000     88.50000     92.00000     95.00000     94.00000    106.00000    129.00000    146.00000    165.00000    185.00000    203.00000    206.00000    265.00000  -9999.00000  -9999.00000  -9999.00000  -9999.00000  -9999.00000  -9999.00000  -9999.00000  -9999.00000  -9999.00000  -9999.00000  -9999.00000  -9999.00000  -9999.00000  -9999.00000  -9999.00000  -9999.00000  -9999.00000  -9999.00000  -9999.00000  -9999.00000  -9999.00000  -9999.00000  -9999.00000  -9999.00000  -9999.00000  -9999.00000  -9999.00000  -9999.00000  -9999.00000  -9999.00000  -9999.00000  -9999.00000  -9999.00000  -9999.00000  -9999.00000  -9999.00000  -9999.00000  -9999.00000  -9999.00000  -9999.00000  -9999.00000  -9999.00000  -9999.00000  -9999.00000  -9999.00000  -9999.00000  -9999.00000  -9999.00000  -9999.00000  -9999.00000  -9999.00000  -9999.00000  -9999.00000  -9999.00000  -9999.00000  -9999.00000  -9999.00000  -9999.00000  -9999.00000  -9999.00000  -9999.00000  -9999.00000  -9999.00000  -9999.00000  -9999.00000  -9999.00000  -9999.00000  -9999.00000  -9999.00000  -9999.00000  -9999.00000  -9999.00000  -9999.00000  -9999.00000  -9999.00000  -9999.00000  -9999.00000  -9999.00000  -9999.00000  -9999.00000  -9999.00000  -9999.00000  -9999.00000  -9999.00000  -9999.00000  -9999.00000  -9999.00000  -9999.00000  -9999.00000  -9999.00000  -9999.00000  -9999.00000  -9999.00000  -9999.00000
302.00000    278.00000    251.00000    219.00000    218.00000    193.00000    164.67000    170.00000    157.00000    155.00000    145.00000    149.00000    142.00000    127.00000    122.00000    117.76000    119.00000    114.00000    119.00000    120.00000    130.00000    156.00000    165.00000    160.00000    143.00000    122.00000    116.00000    107.00000     93.00000     85.00000     85.00000     85.00000     83.00000     86.00000     86.50000     94.00000    117.00000    143.00000    155.00000    147.00000    137.00000    141.00000    150.00000    160.00000    169.00000    177.00000    190.00000    174.34000    201.00000    203.00000    197.00000    202.00000    199.00000    216.00000    221.00000    238.00000    251.00000    250.00000    250.00000    288.00000    341.00000    288.00000    337.00000    344.00000    362.00000    344.00000    346.00000    338.00000    327.00000    315.00000    315.49000    315.51000    287.00000    242.00000    226.00000    207.00000    186.00000    168.00000    152.49000    128.00000    128.00000    117.00000    106.00000     98.00000     95.50000     85.00000     77.00000     69.50000     69.50000     67.00000     64.00000     62.00000     62.00000     61.00000     58.00000     56.00000     54.00000     51.01000     52.00000     50.78000     50.78000     50.84000     50.91000     52.00000     51.41000     57.00000     57.00000     56.00000     56.75000     56.74000     60.00000     61.51000     63.00000     65.00000     66.50000     66.50000     68.00000     70.00000     72.00000     74.00000     78.00000     81.00000     84.00000     87.00000     87.00000     91.00000     91.00000     99.00000    109.00000    128.01000    128.00000    154.00000    182.00000    206.00000    228.00000  -9999.00000  -9999.00000  -9999.00000  -9999.00000  -9999.00000  -9999.00000  -9999.00000  -9999.00000  -9999.00000  -9999.00000  -9999.00000  -9999.00000  -9999.00000  -9999.00000  -9999.00000  -9999.00000  -9999.00000  -9999.00000  -9999.00000  -9999.00000  -9999.00000  -9999.00000  -9999.00000  -9999.00000  -9999.00000  -9999.00000  -9999.00000  -9999.00000  -9999.00000  -9999.00000  -9999.00000  -9999.00000  -9999.00000  -9999.00000  -9999.00000  -9999.00000  -9999.00000  -9999.00000  -9999.00000  -9999.00000  -9999.00000  -9999.00000  -9999.00000  -9999.00000  -9999.00000  -9999.00000  -9999.00000  -9999.00000  -9999.00000  -9999.00000  -9999.00000  -9999.00000  -9999.00000  -9999.00000  -9999.00000  -9999.00000  -9999.00000  -9999.00000  -9999.00000  -9999.00000  -9999.00000  -9999.00000  -9999.00000  -9999.00000  -9999.00000  -9999.00000  -9999.00000  -9999.00000  -9999.00000  -9999.00000  -9999.00000  -9999.00000  -9999.00000  -9999.00000  -9999.00000  -9999.00000  -9999.00000  -9999.00000  -9999.00000  -9999.00000  -9999.00000  -9999.00000  -9999.00000  -9999.00000  -9999.00000  -9999.00000  -9999.00000  -9999.00000  -9999.00000  -9999.00000  -9999.00000  -9999.00000  -9999.00000  -9999.00000
309.00000    285.00000    251.00000    204.00000    186.99000    179.00000    164.66000    164.00000    158.00000    152.00000    142.00000    145.00000    130.00000    122.76000    121.00000    117.17000    117.75000    113.00000    114.00000    113.00000    122.00000    144.00000    160.00000    164.00000    149.00000    118.00000    105.00000    102.00000     96.00000     86.16000     86.17000     85.00000     86.00000     88.00000     90.00000     94.00000    128.00000    160.00000    169.00000    160.00000    146.00000    148.00000    156.00000    169.00000    183.00000    196.00000    205.00000    220.00000    220.00000    232.00000    229.00000    230.51000    230.49000    252.00000    253.00000    282.00000    313.00000    276.00000    276.00000    352.00000    386.00000    358.00000    400.00000    435.00000    344.00000    411.00000    395.00000    383.00000    370.00000    358.00000    366.00000    355.00000    319.00000    261.00000    261.00000    232.00000    203.00000    185.00000    167.00000    150.00000    141.00000    126.00000    106.00000     98.00000     95.50000     95.00000     89.00000     76.50000     76.50000     72.00000     67.00000     65.00000     64.00000     60.00000     60.00000     58.00000     56.00000     52.00000     52.00000     51.00000     50.97000     50.97000     51.61000     51.61000     51.41000     52.14000     54.00000     54.00000     55.00000     56.00000     57.00000     60.00000     62.00000     64.00000     63.00000     64.00000     66.00000     67.50000     69.00000     73.00000     75.00000     78.00000     82.00000     81.00000     83.00000     85.00000     89.50000     95.00000    103.00000    118.00000    127.99000    134.00000    156.00000    163.00000    190.00000  -9999.00000  -9999.00000  -9999.00000  -9999.00000  -9999.00000  -9999.00000  -9999.00000  -9999.00000  -9999.00000  -9999.00000  -9999.00000  -9999.00000  -9999.00000  -9999.00000  -9999.00000  -9999.00000  -9999.00000  -9999.00000  -9999.00000  -9999.00000  -9999.00000  -9999.00000  -9999.00000  -9999.00000  -9999.00000  -9999.00000  -9999.00000  -9999.00000  -9999.00000  -9999.00000  -9999.00000  -9999.00000  -9999.00000  -9999.00000  -9999.00000  -9999.00000  -9999.00000  -9999.00000  -9999.00000  -9999.00000  -9999.00000  -9999.00000  -9999.00000  -9999.00000  -9999.00000  -9999.00000  -9999.00000  -9999.00000  -9999.00000  -9999.00000  -9999.00000  -9999.00000  -9999.00000  -9999.00000  -9999.00000  -9999.00000  -9999.00000  -9999.00000  -9999.00000  -9999.00000  -9999.00000  -9999.00000  -9999.00000  -9999.00000  -9999.00000  -9999.00000  -9999.00000  -9999.00000  -9999.00000  -9999.00000  -9999.00000  -9999.00000  -9999.00000  -9999.00000  -9999.00000  -9999.00000  -9999.00000  -9999.00000  -9999.00000  -9999.00000  -9999.00000  -9999.00000  -9999.00000  -9999.00000  -9999.00000  -9999.00000  -9999.00000  -9999.00000  -9999.00000  -9999.00000  -9999.00000  -9999.00000  -9999.00000  -9999.00000
267.00000    263.00000    238.00000    208.00000    187.01000    169.00000    163.00000    157.51000    163.00000    147.00000    141.00000    141.00000    127.50000    122.75000    119.00000    117.16000    117.00000    113.00000    112.00000    110.00000    112.00000    129.00000    151.00000    149.00000    141.00000    122.00000    113.00000     97.00000     87.33000     87.34000     88.00000     87.00000     91.00000     91.00000     92.00000     95.00000    124.00000    156.00000    163.00000    161.00000    158.00000    157.00000    166.00000    181.00000    195.67000    211.00000    225.00000    238.00000    238.00000    265.00000    262.00000    264.00000    258.00000    290.00000    279.00000    279.00000    378.00000    340.00000    366.00000    368.00000    368.00000    380.00000    425.00000    466.51000    466.49000    461.00000    444.00000    437.00000    415.00000    403.00000    403.00000    382.00000    336.00000    312.00000    284.00000    232.00000    222.00000    203.00000    182.00000    165.00000    141.00000    133.00000    127.00000    121.00000    116.00000    111.00000    101.00000     83.00000     83.00000     75.00000     74.00000     71.00000     65.00000     65.00000     63.00000     61.00000     59.00000     56.00000     55.00000     51.25000     51.25000     51.26000     51.31000     51.42000     53.00000     52.14000     53.31000     53.32000     54.25000     56.00000     58.00000     59.00000     62.00000     61.00000     61.00000     63.00000     65.00000     66.00000     67.50000     70.67000     73.00000     75.00000     77.00000     80.00000     83.00000     86.00000     89.50000     93.00000     99.00000     99.00000    121.00000    126.00000    134.00000    145.00000    165.00000  -9999.00000  -9999.00000  -9999.00000  -9999.00000  -9999.00000  -9999.00000  -9999.00000  -9999.00000  -9999.00000  -9999.00000  -9999.00000  -9999.00000  -9999.00000  -9999.00000  -9999.00000  -9999.00000  -9999.00000  -9999.00000  -9999.00000  -9999.00000  -9999.00000  -9999.00000  -9999.00000  -9999.00000  -9999.00000  -9999.00000  -9999.00000  -9999.00000  -9999.00000  -9999.00000  -9999.00000  -9999.00000  -9999.00000  -9999.00000  -9999.00000  -9999.00000  -9999.00000  -9999.00000  -9999.00000  -9999.00000  -9999.00000  -9999.00000  -9999.00000  -9999.00000  -9999.00000  -9999.00000  -9999.00000  -9999.00000  -9999.00000  -9999.00000  -9999.00000  -9999.00000  -9999.00000  -9999.00000  -9999.00000  -9999.00000  -9999.00000  -9999.00000  -9999.00000  -9999.00000  -9999.00000  -9999.00000  -9999.00000  -9999.00000  -9999.00000  -9999.00000  -9999.00000  -9999.00000  -9999.00000  -9999.00000  -9999.00000  -9999.00000  -9999.00000  -9999.00000  -9999.00000  -9999.00000  -9999.00000  -9999.00000  -9999.00000  -9999.00000  -9999.00000  -9999.00000  -9999.00000  -9999.00000  -9999.00000  -9999.00000  -9999.00000  -9999.00000  -9999.00000  -9999.00000  -9999.00000  -9999.00000  -9999.00000  -9999.00000
272.00000    234.00000    217.99000    197.00000    188.00000    174.00000    166.00000    157.49000    151.00000    144.49000    144.50000    136.00000    127.50000    122.75000    117.16000    119.00000    114.00000    110.00000    106.00000    104.00000    108.00000    113.00000    129.00000    131.00000    121.00000    113.00000    107.00000     94.00000     88.50000     88.50000     90.00000     93.00000     95.50000     95.50000     97.00000     98.00000    120.00000    162.00000    167.00000    164.00000    171.01000    170.99000    176.00000    189.00000    195.67000    222.00000    240.00000    258.00000    258.00000    300.00000    299.00000    301.00000    284.00000    301.00000    333.00000    337.00000    347.00000    408.00000    422.00000    419.00000    419.00000    433.00000    441.00000    506.00000    506.00000    518.00000    495.00000    493.00000    458.00000    458.00000    442.00000    400.00000    366.00000    333.00000    290.00000    261.00000    241.00000    218.00000    195.00000    170.00000    156.00000    141.00000    137.00000    130.00000    127.00000    113.00000    103.00000     86.50000     86.50000     81.00000     79.00000     74.00000     67.50000     67.50000     68.34000     65.50000     60.00000     55.00000     55.00000     51.69000     51.60000     51.27000     51.27000     52.54000     52.54000     52.15000     53.64000     53.93000     54.00000     55.25000     56.51000     59.00000     58.00000     59.00000     61.00000     63.00000     64.00000     66.00000     68.50000     71.00000     70.67000     73.00000     76.00000     79.00000     81.00000     85.00000     92.34000     93.00000     97.50000     99.00000    110.00000    122.00000    138.00000    145.00000  -9999.00000  -9999.00000  -9999.00000  -9999.00000  -9999.00000  -9999.00000  -9999.00000  -9999.00000  -9999.00000  -9999.00000  -9999.00000  -9999.00000  -9999.00000  -9999.00000  -9999.00000  -9999.00000  -9999.00000  -9999.00000  -9999.00000  -9999.00000  -9999.00000  -9999.00000  -9999.00000  -9999.00000  -9999.00000  -9999.00000  -9999.00000  -9999.00000  -9999.00000  -9999.00000  -9999.00000  -9999.00000  -9999.00000  -9999.00000  -9999.00000  -9999.00000  -9999.00000  -9999.00000  -9999.00000  -9999.00000  -9999.00000  -9999.00000  -9999.00000  -9999.00000  -9999.00000  -9999.00000  -9999.00000  -9999.00000  -9999.00000  -9999.00000  -9999.00000  -9999.00000  -9999.00000  -9999.00000  -9999.00000  -9999.00000  -9999.00000  -9999.00000  -9999.00000  -9999.00000  -9999.00000  -9999.00000  -9999.00000  -9999.00000  -9999.00000  -9999.00000  -9999.00000  -9999.00000  -9999.00000  -9999.00000  -9999.00000  -9999.00000  -9999.00000  -9999.00000  -9999.00000  -9999.00000  -9999.00000  -9999.00000  -9999.00000  -9999.00000  -9999.00000  -9999.00000  -9999.00000  -9999.00000  -9999.00000  -9999.00000  -9999.00000  -9999.00000  -9999.00000  -9999.00000  -9999.00000  -9999.00000  -9999.00000  -9999.00000  -9999.00000
254.00000    235.00000    218.01000    199.00000    186.00000    172.99000    164.99000    157.49000    153.00000    146.01000    138.00000    133.49000    128.99000    125.00000    122.74000    114.00000    114.00000    110.00000    107.00000    104.00000    105.00000    110.00000    122.00000    125.00000    131.00000    124.00000    107.00000     94.00000     90.00000     90.00000     93.00000     98.00000    100.00000    100.00000    103.00000    104.00000    121.00000    125.00000    160.00000    171.00000    184.00000    192.00000    191.00000    195.66000    213.00000    235.00000    255.00000    276.00000    276.00000    299.00000    334.00000    351.00000    315.00000    334.00000    365.00000    347.00000    431.00000    484.00000    504.00000    481.00000    481.00000    517.99000    518.01000    577.00000    577.00000    586.00000    561.00000    557.00000    532.00000    514.00000    487.00000    432.00000    392.00000    346.00000    319.00000    290.00000    266.00000    234.00000    205.00000    182.00000    167.00000    157.00000    145.00000    143.00000    131.01000    109.00000    104.00000     92.00000     92.00000     86.00000     82.00000     77.00000     75.00000     72.00000     68.33000     65.50000     61.00000     59.66000     56.00000     55.00000     54.00000     52.00000     53.00000     52.68000     52.67000     53.65000     53.95000     53.94000     56.00000     55.25000     56.00000     56.49000     57.00000     59.00000     60.00000     62.00000     63.00000     65.00000     68.25000     68.25000     70.66000     73.00000     75.00000     78.00000     80.00000     83.50000     88.00000     92.34000     97.50000    106.00000    111.00000    122.00000    136.00000    138.00000  -9999.00000  -9999.00000  -9999.00000  -9999.00000  -9999.00000  -9999.00000  -9999.00000  -9999.00000  -9999.00000  -9999.00000  -9999.00000  -9999.00000  -9999.00000  -9999.00000  -9999.00000  -9999.00000  -9999.00000  -9999.00000  -9999.00000  -9999.00000  -9999.00000  -9999.00000  -9999.00000  -9999.00000  -9999.00000  -9999.00000  -9999.00000  -9999.00000  -9999.00000  -9999.00000  -9999.00000  -9999.00000  -9999.00000  -9999.00000  -9999.00000  -9999.00000  -9999.00000  -9999.00000  -9999.00000  -9999.00000  -9999.00000  -9999.00000  -9999.00000  -9999.00000  -9999.00000  -9999.00000  -9999.00000  -9999.00000  -9999.00000  -9999.00000  -9999.00000  -9999.00000  -9999.00000  -9999.00000  -9999.00000  -9999.00000  -9999.00000  -9999.00000  -9999.00000  -9999.00000  -9999.00000  -9999.00000  -9999.00000  -9999.00000  -9999.00000  -9999.00000  -9999.00000  -9999.00000  -9999.00000  -9999.00000  -9999.00000  -9999.00000  -9999.00000  -9999.00000  -9999.00000  -9999.00000  -9999.00000  -9999.00000  -9999.00000  -9999.00000  -9999.00000  -9999.00000  -9999.00000  -9999.00000  -9999.00000  -9999.00000  -9999.00000  -9999.00000  -9999.00000  -9999.00000  -9999.00000  -9999.00000  -9999.00000  -9999.00000  -9999.00000
260.00000    242.00000    222.00000    205.00000    186.00000    173.01000    165.01000    157.51000    151.00000    145.00000    139.00000    133.51000    129.00000    125.00000    119.00000    113.50000    110.00000    107.00000    103.00000    102.00000    103.00000    103.00000    114.00000    125.00000    127.00000    114.00000    109.00000     91.85000     93.00000     92.00000     96.00000     99.00000    104.00000    106.50000    106.50000    110.00000    125.00000    125.00000    162.00000    179.00000    193.00000    210.00000    219.00000    224.00000    238.00000    249.00000    267.00000    290.00000    317.00000    333.32000    354.00000    370.00000    353.00000    394.00000    433.00000    416.00000    481.00000    484.00000    617.00000    584.00000    582.00000    582.00000    610.00000    636.00000    663.00000    655.00000    653.00000    628.00000    605.00000    577.00000    520.00000    466.00000    415.00000    372.00000    353.00000    326.00000    286.00000    245.00000    218.00000    198.00000    170.00000    170.00000    164.00000    143.00000    130.99000    119.00000    104.50000    104.50000     97.00000     92.00000     88.00000     82.00000     78.50000     76.00000     67.66000     67.67000     62.00000     59.66000     59.68000     58.00000     56.00000     53.00000     53.00000     53.00000     53.00000     54.00000     54.51000     54.50000     55.24000     55.25000     55.50000     56.00000     57.00000     59.00000     61.00000     61.49000     63.00000     64.00000     67.00000     67.00000     71.00000     75.00000     76.50000     77.00000     81.00000     83.50000     87.00000     92.32000     97.00000    113.00000    106.00000    123.00000    135.00000    133.00000  -9999.00000  -9999.00000  -9999.00000  -9999.00000  -9999.00000  -9999.00000  -9999.00000  -9999.00000  -9999.00000  -9999.00000  -9999.00000  -9999.00000  -9999.00000  -9999.00000  -9999.00000  -9999.00000  -9999.00000  -9999.00000  -9999.00000  -9999.00000  -9999.00000  -9999.00000  -9999.00000  -9999.00000  -9999.00000  -9999.00000  -9999.00000  -9999.00000  -9999.00000  -9999.00000  -9999.00000  -9999.00000  -9999.00000  -9999.00000  -9999.00000  -9999.00000  -9999.00000  -9999.00000  -9999.00000  -9999.00000  -9999.00000  -9999.00000  -9999.00000  -9999.00000  -9999.00000  -9999.00000  -9999.00000  -9999.00000  -9999.00000  -9999.00000  -9999.00000  -9999.00000  -9999.00000  -9999.00000  -9999.00000  -9999.00000  -9999.00000  -9999.00000  -9999.00000  -9999.00000  -9999.00000  -9999.00000  -9999.00000  -9999.00000  -9999.00000  -9999.00000  -9999.00000  -9999.00000  -9999.00000  -9999.00000  -9999.00000  -9999.00000  -9999.00000  -9999.00000  -9999.00000  -9999.00000  -9999.00000  -9999.00000  -9999.00000  -9999.00000  -9999.00000  -9999.00000  -9999.00000  -9999.00000  -9999.00000  -9999.00000  -9999.00000  -9999.00000  -9999.00000  -9999.00000  -9999.00000  -9999.00000  -9999.00000  -9999.00000  -9999.00000
262.00000    240.00000    219.00000    202.00000    184.00000    167.00000    155.00000    150.00000    143.49000    138.99000    136.00000    129.01000    124.00000    118.00000    117.00000    113.50000    110.00000    106.50000    103.00000    100.40000     99.69000     99.70000    102.00000    110.00000    115.00000     98.04000     99.00000     91.85000     93.00000     95.00000     99.00000    101.00000    107.00000    111.00000    111.00000    116.00000    126.00000    145.00000    157.00000    189.00000    207.25000    220.00000    240.00000    252.00000    261.00000    278.00000    290.00000    310.00000    333.34000    333.34000    389.49000    389.51000    385.00000    415.00000    478.00000    510.00000    569.00000    588.00000    633.00000    705.00000    694.00000    660.00000    695.00000    724.00000    741.00000    732.00000    783.00000    736.00000    730.00000    694.00000    572.00000    506.00000    467.00000    394.00000    394.00000    345.00000    299.00000    264.00000    240.00000    217.00000    199.00000    186.00000    173.00000    163.00000    141.00000    129.00000    111.00000    111.00000    106.00000    100.00000     93.00000     87.00000     78.50000     78.00000     76.00000     72.00000     67.00000     62.99000     63.01000     59.00000     57.00000     55.00000     54.00000     54.00000     55.00000     55.28000     55.28000     55.26000     58.00000     56.00000     55.51000     56.00000     58.00000     59.00000     61.00000     61.51000     63.00000     66.00000     66.00000     68.00000     71.00000     76.50000     81.00000     80.00000     82.00000     85.00000     88.00000     93.00000     97.00000    106.00000    106.00000    122.00000    128.00000    130.00000  -9999.00000  -9999.00000  -9999.00000  -9999.00000  -9999.00000  -9999.00000  -9999.00000  -9999.00000  -9999.00000  -9999.00000  -9999.00000  -9999.00000  -9999.00000  -9999.00000  -9999.00000  -9999.00000  -9999.00000  -9999.00000  -9999.00000  -9999.00000  -9999.00000  -9999.00000  -9999.00000  -9999.00000  -9999.00000  -9999.00000  -9999.00000  -9999.00000  -9999.00000  -9999.00000  -9999.00000  -9999.00000  -9999.00000  -9999.00000  -9999.00000  -9999.00000  -9999.00000  -9999.00000  -9999.00000  -9999.00000  -9999.00000  -9999.00000  -9999.00000  -9999.00000  -9999.00000  -9999.00000  -9999.00000  -9999.00000  -9999.00000  -9999.00000  -9999.00000  -9999.00000  -9999.00000  -9999.00000  -9999.00000  -9999.00000  -9999.00000  -9999.00000  -9999.00000  -9999.00000  -9999.00000  -9999.00000  -9999.00000  -9999.00000  -9999.00000  -9999.00000  -9999.00000  -9999.00000  -9999.00000  -9999.00000  -9999.00000  -9999.00000  -9999.00000  -9999.00000  -9999.00000  -9999.00000  -9999.00000  -9999.00000  -9999.00000  -9999.00000  -9999.00000  -9999.00000  -9999.00000  -9999.00000  -9999.00000  -9999.00000  -9999.00000  -9999.00000  -9999.00000  -9999.00000  -9999.00000  -9999.00000  -9999.00000  -9999.00000  -9999.00000
256.00000    235.01000    214.00000    195.00000    175.00000    164.00000    153.00000    146.00000    143.51000    139.01000    137.00000    130.00000    124.00000    118.00000    113.00000    111.00000    110.00000    106.50000    104.00000    101.00000     98.26000     98.25000     98.04000     98.04000     98.04000    105.00000     98.02000     91.86000     97.00000     99.00000    103.25000    104.50000    109.00000    115.00000    115.00000    119.00000    127.00000    146.00000    163.00000    178.00000    207.24000    220.00000    248.00000    263.00000    284.00000    298.00000    320.00000    336.00000    358.00000    384.00000    414.00000    442.00000    449.00000    476.00000    465.00000    539.00000    610.00000    590.00000    666.00000    741.00000    787.00000    727.00000    824.00000    857.00000    857.00000    882.00000    915.00000    916.00000    910.00000    835.00000    667.00000    585.00000    501.00000    413.00000    413.00000    355.00000    299.00000    284.00000    256.00000    233.00000    213.00000    196.00000    197.00000    185.00000    165.00000    143.00000    123.00000    123.00000    117.00000    107.00000    100.00000     94.00000     87.00000     88.00000     82.00000     78.00000     72.00000     65.00000     65.00000     60.00000     56.34000     54.00000     54.00000     55.00000     55.00000     56.01000     55.99000     55.83000     55.84000     55.85000     56.27000     56.33000     58.00000     59.00000     60.00000     61.00000     64.34000     64.22000     67.00000     70.33000     74.00000     78.00000     83.00000     83.00000     86.00000     88.00000     92.00000    101.00000    106.00000    109.00000    116.00000    127.00000    127.00000    131.00000  -9999.00000  -9999.00000  -9999.00000  -9999.00000  -9999.00000  -9999.00000  -9999.00000  -9999.00000  -9999.00000  -9999.00000  -9999.00000  -9999.00000  -9999.00000  -9999.00000  -9999.00000  -9999.00000  -9999.00000  -9999.00000  -9999.00000  -9999.00000  -9999.00000  -9999.00000  -9999.00000  -9999.00000  -9999.00000  -9999.00000  -9999.00000  -9999.00000  -9999.00000  -9999.00000  -9999.00000  -9999.00000  -9999.00000  -9999.00000  -9999.00000  -9999.00000  -9999.00000  -9999.00000  -9999.00000  -9999.00000  -9999.00000  -9999.00000  -9999.00000  -9999.00000  -9999.00000  -9999.00000  -9999.00000  -9999.00000  -9999.00000  -9999.00000  -9999.00000  -9999.00000  -9999.00000  -9999.00000  -9999.00000  -9999.00000  -9999.00000  -9999.00000  -9999.00000  -9999.00000  -9999.00000  -9999.00000  -9999.00000  -9999.00000  -9999.00000  -9999.00000  -9999.00000  -9999.00000  -9999.00000  -9999.00000  -9999.00000  -9999.00000  -9999.00000  -9999.00000  -9999.00000  -9999.00000  -9999.00000  -9999.00000  -9999.00000  -9999.00000  -9999.00000  -9999.00000  -9999.00000  -9999.00000  -9999.00000  -9999.00000  -9999.00000  -9999.00000  -9999.00000  -9999.00000  -9999.00000  -9999.00000  -9999.00000  -9999.00000  -9999.00000
235.00000    228.00000    208.00000    191.00000    172.00000    159.00000    150.49000    143.00000    142.00000    140.00000    130.00000    124.00000    124.00000    120.00000    113.00000    109.00000    107.00000    102.27000    101.50000     99.43000     98.26000     98.43000     98.04000     99.00000    102.00000    100.00000     91.86000     96.00000    100.00000    102.00000    103.25000    108.00000    112.50000    118.00000    121.00000    125.00000    131.00000    141.51000    166.00000    179.00000    208.51000    234.00000    248.00000    263.00000    296.00000    310.00000    328.00000    354.00000    389.00000    415.00000    444.00000    467.00000    511.00000    536.00000    537.00000    608.00000    590.00000    590.00000    724.00000    821.00000    840.00000    822.00000    937.00000   1017.00000   1027.00000   1106.00000   1144.00000   1147.00000   1120.00000    963.00000    745.00000    629.00000    542.00000    508.00000    437.00000    385.00000    346.00000    306.00000    271.00000    254.00000    247.00000    230.00000    217.00000    197.00000    177.00000    160.00000    143.00000    135.51000    117.00000    107.00000    100.00000     94.00000     95.00000     88.00000     88.00000     81.00000     73.00000     73.00000     67.00000     62.51000     59.00000     56.32000     55.00000     57.00000     57.00000     57.38000     57.37000     57.17000     57.19000     56.19000     56.26000     57.00000     57.00000     58.00000     59.00000     61.00000     64.11000     64.22000     67.00000     73.00000     70.33000     80.00000     83.00000     90.00000     92.50000     92.50000     94.00000    113.83000    113.83000    123.00000    117.00000    132.00000    133.00000  -9999.00000  -9999.00000  -9999.00000  -9999.00000  -9999.00000  -9999.00000  -9999.00000  -9999.00000  -9999.00000  -9999.00000  -9999.00000  -9999.00000  -9999.00000  -9999.00000  -9999.00000  -9999.00000  -9999.00000  -9999.00000  -9999.00000  -9999.00000  -9999.00000  -9999.00000  -9999.00000  -9999.00000  -9999.00000  -9999.00000  -9999.00000  -9999.00000  -9999.00000  -9999.00000  -9999.00000  -9999.00000  -9999.00000  -9999.00000  -9999.00000  -9999.00000  -9999.00000  -9999.00000  -9999.00000  -9999.00000  -9999.00000  -9999.00000  -9999.00000  -9999.00000  -9999.00000  -9999.00000  -9999.00000  -9999.00000  -9999.00000  -9999.00000  -9999.00000  -9999.00000  -9999.00000  -9999.00000  -9999.00000  -9999.00000  -9999.00000  -9999.00000  -9999.00000  -9999.00000  -9999.00000  -9999.00000  -9999.00000  -9999.00000  -9999.00000  -9999.00000  -9999.00000  -9999.00000  -9999.00000  -9999.00000  -9999.00000  -9999.00000  -9999.00000  -9999.00000  -9999.00000  -9999.00000  -9999.00000  -9999.00000  -9999.00000  -9999.00000  -9999.00000  -9999.00000  -9999.00000  -9999.00000  -9999.00000  -9999.00000  -9999.00000  -9999.00000  -9999.00000  -9999.00000  -9999.00000  -9999.00000  -9999.00000  -9999.00000  -9999.00000  -9999.00000
233.99000    220.00000    191.00000    187.00000    173.00000    160.00000    150.51000    142.00000    136.00000    132.49000    127.00000    122.50000    118.50000    115.00000    110.50000    109.00000    102.28000    102.28000    101.50000     99.43000     99.49000     98.44000     94.00000     93.00000     92.03000     91.86000     92.16000     96.00000    101.00000    105.00000    107.00000    111.00000    112.50000    121.00000    127.00000    133.00000    136.00000    141.49000    160.00000    180.00000    191.00000    224.00000    265.00000    293.00000    292.00000    320.00000    337.00000    351.00000    374.00000    401.00000    444.00000    498.49000    532.00000    589.00000    630.00000    666.00000    719.00000    743.00000    797.00000    885.00000    980.00000    948.00000   1023.00000   1180.00000   1274.00000   1379.00000   1370.00000   1357.00000   1275.00000   1038.00000    816.00000    736.00000    638.00000    608.00000    505.00000    463.00000    430.00000    360.00000    326.00000    302.00000    276.00000    249.00000    232.00000    214.00000    193.00000    169.00000    152.00000    135.49000    128.00000    117.00000    108.00000     97.00000     97.00000     94.00000     88.00000     84.00000     80.00000     76.00000     69.50000     62.49000     60.00000     56.66000     56.68000     58.00000     58.00000     58.69000     58.69000     58.11000     58.13000     56.19000     56.42000     58.00000     57.00000     58.00000     60.00000     63.00000     64.11000     68.00000     70.50000     70.34000     77.00000     79.00000     89.00000     94.00000     99.00000     98.00000     99.00000    114.67000    114.67000    133.00000    124.00000    125.00000    131.00000  -9999.00000  -9999.00000  -9999.00000  -9999.00000  -9999.00000  -9999.00000  -9999.00000  -9999.00000  -9999.00000  -9999.00000  -9999.00000  -9999.00000  -9999.00000  -9999.00000  -9999.00000  -9999.00000  -9999.00000  -9999.00000  -9999.00000  -9999.00000  -9999.00000  -9999.00000  -9999.00000  -9999.00000  -9999.00000  -9999.00000  -9999.00000  -9999.00000  -9999.00000  -9999.00000  -9999.00000  -9999.00000  -9999.00000  -9999.00000  -9999.00000  -9999.00000  -9999.00000  -9999.00000  -9999.00000  -9999.00000  -9999.00000  -9999.00000  -9999.00000  -9999.00000  -9999.00000  -9999.00000  -9999.00000  -9999.00000  -9999.00000  -9999.00000  -9999.00000  -9999.00000  -9999.00000  -9999.00000  -9999.00000  -9999.00000  -9999.00000  -9999.00000  -9999.00000  -9999.00000  -9999.00000  -9999.00000  -9999.00000  -9999.00000  -9999.00000  -9999.00000  -9999.00000  -9999.00000  -9999.00000  -9999.00000  -9999.00000  -9999.00000  -9999.00000  -9999.00000  -9999.00000  -9999.00000  -9999.00000  -9999.00000  -9999.00000  -9999.00000  -9999.00000  -9999.00000  -9999.00000  -9999.00000  -9999.00000  -9999.00000  -9999.00000  -9999.00000  -9999.00000  -9999.00000  -9999.00000  -9999.00000  -9999.00000  -9999.00000  -9999.00000  -9999.00000
234.00000    213.00000    198.00000    173.00000    170.00000    162.51000    153.00000    144.00000    137.00000    132.51000    127.00000    122.50000    118.50000    115.00000    110.50000    105.33000    103.12000    102.28000    102.38000     97.00000     96.00000     96.00000     94.00000     92.05000     92.01000     91.86000     93.00000     96.00000    101.00000    105.00000    111.00000    115.00000    118.00000    122.00000    131.00000    138.00000    144.00000    149.00000    161.00000    164.00000    186.00000    206.00000    251.00000    292.00000    328.00000    333.49000    349.00000    369.00000    388.00000    419.00000    456.00000    498.51000    560.00000    598.00000    643.00000    703.00000    775.00000    846.00000    913.00000    959.00000   1042.00000   1144.00000   1193.00000   1350.00000   1548.00000   1673.00000   1615.00000   1542.00000   1425.00000   1202.00000    995.00000    857.00000    766.00000    638.00000    590.00000    552.00000    498.00000    410.00000    364.00000    323.00000    290.00000    249.00000    243.00000    223.00000    202.00000    176.00000    158.00000    147.00000    136.00000    121.00000    111.00000    111.00000    102.00000    100.00000     93.00000     91.00000     82.00000     76.00000     69.50000     64.22000     60.00000     59.00000     59.00000     58.00000     61.01000     60.67000     60.00000     59.73000     59.75000     57.00000     58.00000     58.00000     59.00000     62.00000     63.00000     66.00000     69.00000     70.50000     75.00000     78.00000     87.00000     84.00000     96.00000     95.00000    103.00000    102.33000    108.00000    117.00000    117.00000    147.00000    140.00000    132.00000  -9999.00000  -9999.00000  -9999.00000  -9999.00000  -9999.00000  -9999.00000  -9999.00000  -9999.00000  -9999.00000  -9999.00000  -9999.00000  -9999.00000  -9999.00000  -9999.00000  -9999.00000  -9999.00000  -9999.00000  -9999.00000  -9999.00000  -9999.00000  -9999.00000  -9999.00000  -9999.00000  -9999.00000  -9999.00000  -9999.00000  -9999.00000  -9999.00000  -9999.00000  -9999.00000  -9999.00000  -9999.00000  -9999.00000  -9999.00000  -9999.00000  -9999.00000  -9999.00000  -9999.00000  -9999.00000  -9999.00000  -9999.00000  -9999.00000  -9999.00000  -9999.00000  -9999.00000  -9999.00000  -9999.00000  -9999.00000  -9999.00000  -9999.00000  -9999.00000  -9999.00000  -9999.00000  -9999.00000  -9999.00000  -9999.00000  -9999.00000  -9999.00000  -9999.00000  -9999.00000  -9999.00000  -9999.00000  -9999.00000  -9999.00000  -9999.00000  -9999.00000  -9999.00000  -9999.00000  -9999.00000  -9999.00000  -9999.00000  -9999.00000  -9999.00000  -9999.00000  -9999.00000  -9999.00000  -9999.00000  -9999.00000  -9999.00000  -9999.00000  -9999.00000  -9999.00000  -9999.00000  -9999.00000  -9999.00000  -9999.00000  -9999.00000  -9999.00000  -9999.00000  -9999.00000  -9999.00000  -9999.00000  -9999.00000  -9999.00000  -9999.00000  -9999.00000  -9999.00000
227.00000    205.00000    191.00000    174.99000    162.49000    157.00000    151.00000    144.00000    137.00000    133.51000    127.00000    122.00000    120.00000    113.00000    109.00000    105.33000    103.13000    103.26000     99.00000     96.00000     94.00000     94.00000     93.00000     92.05000     92.31000     92.32000     97.00000    100.50000    103.00000    107.00000    111.00000    119.00000    122.00000    128.00000    134.00000    142.00000    150.00000    157.00000    164.00000    181.00000    182.00000    200.00000    230.00000    287.00000    333.51000    364.00000    363.00000    379.00000    404.00000    440.00000    476.00000    519.00000    565.00000    629.00000    682.00000    792.00000    880.00000    927.00000    961.00000   1066.00000   1063.00000   1268.00000   1416.00000   1588.00000   1835.00000   1959.00000   1933.00000   1845.00000   1673.00000   1383.00000   1178.00000    997.00000    882.00000    767.00000    675.00000    597.00000    513.00000    440.00000    389.00000    323.00000    309.00000    285.00000    257.00000    232.00000    205.00000    188.00000    176.00000    162.00000    145.00000    129.00000    116.00000    116.00000    110.00000    104.00000     98.00000     93.00000     86.00000     79.00000     74.00000     68.00000     64.22000     64.22000     62.00000     61.00000     62.43000     61.00000     60.66000     60.21000     60.23000     59.51000     59.49000     60.00000     61.00000     63.00000     65.00000     67.00000     72.50000     72.50000     79.00000     93.00000    101.00000     96.00000    105.00000    111.00000    102.34000    102.33000    115.00000    132.00000    147.00000    162.00000    157.00000  -9999.00000  -9999.00000  -9999.00000  -9999.00000  -9999.00000  -9999.00000  -9999.00000  -9999.00000  -9999.00000  -9999.00000  -9999.00000  -9999.00000  -9999.00000  -9999.00000  -9999.00000  -9999.00000  -9999.00000  -9999.00000  -9999.00000  -9999.00000  -9999.00000  -9999.00000  -9999.00000  -9999.00000  -9999.00000  -9999.00000  -9999.00000  -9999.00000  -9999.00000  -9999.00000  -9999.00000  -9999.00000  -9999.00000  -9999.00000  -9999.00000  -9999.00000  -9999.00000  -9999.00000  -9999.00000  -9999.00000  -9999.00000  -9999.00000  -9999.00000  -9999.00000  -9999.00000  -9999.00000  -9999.00000  -9999.00000  -9999.00000  -9999.00000  -9999.00000  -9999.00000  -9999.00000  -9999.00000  -9999.00000  -9999.00000  -9999.00000  -9999.00000  -9999.00000  -9999.00000  -9999.00000  -9999.00000  -9999.00000  -9999.00000  -9999.00000  -9999.00000  -9999.00000  -9999.00000  -9999.00000  -9999.00000  -9999.00000  -9999.00000  -9999.00000  -9999.00000  -9999.00000  -9999.00000  -9999.00000  -9999.00000  -9999.00000  -9999.00000  -9999.00000  -9999.00000  -9999.00000  -9999.00000  -9999.00000  -9999.00000  -9999.00000  -9999.00000  -9999.00000  -9999.00000  -9999.00000  -9999.00000  -9999.00000  -9999.00000  -9999.00000  -9999.00000  -9999.00000  -9999.00000
218.00000    202.00000    187.00000    175.01000    163.00000    154.66000    147.00000    140.66000    133.49000    132.00000    127.00000    122.00000    117.00000    113.00000    108.00000    107.00000    105.34000     99.00000     97.00000     94.00000     94.00000     93.00000     92.30000     92.06000     92.06000     95.00000     99.00000    100.50000    108.00000    112.00000    117.50000    120.50000    126.50000    132.68000    138.51000    145.51000    156.00000    166.51000    173.00000    182.00000    198.00000    213.00000    226.00000    271.00000    320.00000    363.00000    397.00000    409.00000    422.00000    444.00000    487.00000    535.00000    590.00000    652.00000    709.00000    760.00000    875.00000    941.00000   1018.00000   1118.00000   1210.00000   1366.00000   1560.00000   1761.00000   2034.00000   2291.00000   2376.00000   2187.00000   1905.00000   1616.00000   1358.00000   1151.00000    991.00000    830.00000    680.00000    593.00000    517.00000    454.00000    402.00000    365.00000    338.00000    305.00000    274.00000    246.00000    226.00000    210.00000    174.00000    174.00000    156.00000    139.00000    127.99000    128.01000    117.50000    109.00000    103.00000     99.00000     93.00000     86.00000     80.00000     71.00000     68.00000     64.34000     64.00000     64.19000     64.00000     62.42000     62.40000     62.00000     61.01000     61.00000     61.00000     62.00000     62.00000     65.00000     69.00000     69.00000     73.00000     80.00000     84.00000     98.00000    119.00000    114.00000    115.00000    129.00000    110.00000    126.00000    125.00000    148.00000    164.00000    173.00000  -9999.00000  -9999.00000  -9999.00000  -9999.00000  -9999.00000  -9999.00000  -9999.00000  -9999.00000  -9999.00000  -9999.00000  -9999.00000  -9999.00000  -9999.00000  -9999.00000  -9999.00000  -9999.00000  -9999.00000  -9999.00000  -9999.00000  -9999.00000  -9999.00000  -9999.00000  -9999.00000  -9999.00000  -9999.00000  -9999.00000  -9999.00000  -9999.00000  -9999.00000  -9999.00000  -9999.00000  -9999.00000  -9999.00000  -9999.00000  -9999.00000  -9999.00000  -9999.00000  -9999.00000  -9999.00000  -9999.00000  -9999.00000  -9999.00000  -9999.00000  -9999.00000  -9999.00000  -9999.00000  -9999.00000  -9999.00000  -9999.00000  -9999.00000  -9999.00000  -9999.00000  -9999.00000  -9999.00000  -9999.00000  -9999.00000  -9999.00000  -9999.00000  -9999.00000  -9999.00000  -9999.00000  -9999.00000  -9999.00000  -9999.00000  -9999.00000  -9999.00000  -9999.00000  -9999.00000  -9999.00000  -9999.00000  -9999.00000  -9999.00000  -9999.00000  -9999.00000  -9999.00000  -9999.00000  -9999.00000  -9999.00000  -9999.00000  -9999.00000  -9999.00000  -9999.00000  -9999.00000  -9999.00000  -9999.00000  -9999.00000  -9999.00000  -9999.00000  -9999.00000  -9999.00000  -9999.00000  -9999.00000  -9999.00000  -9999.00000  -9999.00000  -9999.00000  -9999.00000  -9999.00000  -9999.00000
211.99000    196.00000    182.49000    169.99000    160.49000    154.66000    150.00000    140.66000    132.99000    128.00000    125.00000    119.00000    117.00000    113.00000    110.00000    108.00000    103.00000    101.00000     98.00000     95.00000     94.00000     92.31000     92.31000     92.21000     92.21000     95.00000    100.00000    105.00000    108.00000    111.00000    117.50000    120.50000    126.50000    132.66000    138.49000    145.49000    156.00000    166.49000    179.00000    194.68000    204.00000    221.00000    239.00000    273.00000    324.00000    367.00000    409.00000    439.00000    461.00000    481.00000    504.00000    555.00000    593.00000    634.00000    701.00000    771.00000    760.00000    876.00000    982.00000   1124.00000   1329.00000   1485.00000   1700.00000   1929.00000   2232.00000   2563.00000   2772.00000   2539.00000   2184.00000   1817.00000   1608.00000   1269.00000   1063.00000    862.00000    704.00000    605.00000    527.00000    472.00000    430.00000    394.00000    359.00000    324.00000    294.00000    266.00000    244.00000    225.00000    207.00000    187.00000    168.00000    153.00000    136.00000    136.00000    127.00000    117.50000    103.00000    103.00000     96.00000     90.00000     83.00000     76.00000     74.00000     69.00000     64.75000     64.57000     64.19000     62.42000     64.00000     62.51000     62.00000     62.00000     63.00000     64.00000     65.00000     67.00000     70.00000     80.00000     83.00000     91.00000     95.00000    106.00000    121.00000    134.01000    139.00000    148.00000    130.00000    143.51000    143.49000    157.00000    177.00000    178.00000  -9999.00000  -9999.00000  -9999.00000  -9999.00000  -9999.00000  -9999.00000  -9999.00000  -9999.00000  -9999.00000  -9999.00000  -9999.00000  -9999.00000  -9999.00000  -9999.00000  -9999.00000  -9999.00000  -9999.00000  -9999.00000  -9999.00000  -9999.00000  -9999.00000  -9999.00000  -9999.00000  -9999.00000  -9999.00000  -9999.00000  -9999.00000  -9999.00000  -9999.00000  -9999.00000  -9999.00000  -9999.00000  -9999.00000  -9999.00000  -9999.00000  -9999.00000  -9999.00000  -9999.00000  -9999.00000  -9999.00000  -9999.00000  -9999.00000  -9999.00000  -9999.00000  -9999.00000  -9999.00000  -9999.00000  -9999.00000  -9999.00000  -9999.00000  -9999.00000  -9999.00000  -9999.00000  -9999.00000  -9999.00000  -9999.00000  -9999.00000  -9999.00000  -9999.00000  -9999.00000  -9999.00000  -9999.00000  -9999.00000  -9999.00000  -9999.00000  -9999.00000  -9999.00000  -9999.00000  -9999.00000  -9999.00000  -9999.00000  -9999.00000  -9999.00000  -9999.00000  -9999.00000  -9999.00000  -9999.00000  -9999.00000  -9999.00000  -9999.00000  -9999.00000  -9999.00000  -9999.00000  -9999.00000  -9999.00000  -9999.00000  -9999.00000  -9999.00000  -9999.00000  -9999.00000  -9999.00000  -9999.00000  -9999.00000  -9999.00000  -9999.00000  -9999.00000  -9999.00000  -9999.00000  -9999.00000
212.01000    196.00000    182.51000    170.01000    160.51000    154.68000    147.00000    140.68000    133.01000    128.00000    123.00000    113.67000    113.67000    110.00000    106.50000    106.50000    104.00000     99.00000     95.00000     94.00000     92.33000     94.00000     93.00000     92.31000     92.31000     95.00000     98.00000    105.00000    110.00000    113.00000    117.00000    124.00000    128.00000    132.66000    141.00000    147.00000    156.00000    156.00000    181.51000    194.66000    211.51000    226.00000    221.00000    273.00000    317.00000    356.00000    398.00000    438.00000    470.00000    494.00000    528.00000    559.00000    604.00000    648.00000    706.00000    760.00000    825.00000    876.00000   1023.00000   1176.00000   1357.00000   1574.00000   1830.00000   2111.00000   2454.00000   2797.00000   2891.00000   2771.00000   2407.00000   2005.00000   1661.00000   1347.00000   1063.00000    878.00000    710.00000    628.00000    555.51000    502.01000    452.51000    408.00000    369.00000    324.00000    302.00000    281.00000    260.00000    239.00000    214.00000    193.00000    175.00000    162.00000    156.00000    146.00000    134.00000    126.00000    116.00000    110.00000    101.50000     95.50000     89.00000     83.00000     77.00000     72.00000     66.00000     64.56000     64.56000     65.00000     65.00000     63.00000     64.50000     64.50000     64.00000     69.00000     70.00000     72.00000     83.00000     94.00000     94.00000    108.00000    117.00000    126.00000    133.99000    145.00000    163.51000    166.00000    159.00000    159.00000    156.00000    172.00000    190.00000  -9999.00000  -9999.00000  -9999.00000  -9999.00000  -9999.00000  -9999.00000  -9999.00000  -9999.00000  -9999.00000  -9999.00000  -9999.00000  -9999.00000  -9999.00000  -9999.00000  -9999.00000  -9999.00000  -9999.00000  -9999.00000  -9999.00000  -9999.00000  -9999.00000  -9999.00000  -9999.00000  -9999.00000  -9999.00000  -9999.00000  -9999.00000  -9999.00000  -9999.00000  -9999.00000  -9999.00000  -9999.00000  -9999.00000  -9999.00000  -9999.00000  -9999.00000  -9999.00000  -9999.00000  -9999.00000  -9999.00000  -9999.00000  -9999.00000  -9999.00000  -9999.00000  -9999.00000  -9999.00000  -9999.00000  -9999.00000  -9999.00000  -9999.00000  -9999.00000  -9999.00000  -9999.00000  -9999.00000  -9999.00000  -9999.00000  -9999.00000  -9999.00000  -9999.00000  -9999.00000  -9999.00000  -9999.00000  -9999.00000  -9999.00000  -9999.00000  -9999.00000  -9999.00000  -9999.00000  -9999.00000  -9999.00000  -9999.00000  -9999.00000  -9999.00000  -9999.00000  -9999.00000  -9999.00000  -9999.00000  -9999.00000  -9999.00000  -9999.00000  -9999.00000  -9999.00000  -9999.00000  -9999.00000  -9999.00000  -9999.00000  -9999.00000  -9999.00000  -9999.00000  -9999.00000  -9999.00000  -9999.00000  -9999.00000  -9999.00000  -9999.00000  -9999.00000  -9999.00000  -9999.00000  -9999.00000  -9999.00000
206.00000    191.00000    178.00000    166.00000    156.00000    147.00000    142.00000    138.00000    130.00000    124.00000    120.00000    113.66000    112.00000    109.00000    106.00000    105.00000    102.00000     98.00000     97.00000     95.00000     92.34000     92.34000     92.34000     92.39000     94.00000     94.00000     98.00000    102.50000    106.00000    110.00000    114.00000    120.00000    123.00000    128.00000    135.00000    146.49000    153.00000    167.00000    181.49000    194.66000    211.49000    221.00000    251.00000    275.01000    307.00000    341.00000    356.00000    404.00000    436.00000    467.00000    503.00000    571.00000    660.00000    644.00000    718.00000    781.00000    843.00000    905.00000   1024.00000   1239.00000   1456.00000   1685.00000   1950.00000   2206.00000   2565.00000   2946.00000   3070.00000   2875.00000   2462.00000   2078.00000   1733.00000   1409.00000   1126.00000    920.00000    747.00000    628.00000    555.49000    501.99000    452.49000    408.00000    379.00000    349.00000    322.00000    298.00000    272.00000    245.00000    221.00000    193.00000    187.00000    163.00000    163.00000    153.00000    139.00000    132.00000    122.00000    110.00000    101.50000     95.50000     89.00000     83.00000     77.00000     72.00000     68.00000     67.00000     67.00000     67.00000     68.00000     67.00000     66.00000     68.00000     69.00000     72.00000     77.00000     77.67000     88.00000    102.00000    116.00000    116.00000    146.00000    142.00000    158.00000    163.49000    181.00000    191.00000    195.00000    185.00000    164.00000    190.00000    209.00000  -9999.00000  -9999.00000  -9999.00000  -9999.00000  -9999.00000  -9999.00000  -9999.00000  -9999.00000  -9999.00000  -9999.00000  -9999.00000  -9999.00000  -9999.00000  -9999.00000  -9999.00000  -9999.00000  -9999.00000  -9999.00000  -9999.00000  -9999.00000  -9999.00000  -9999.00000  -9999.00000  -9999.00000  -9999.00000  -9999.00000  -9999.00000  -9999.00000  -9999.00000  -9999.00000  -9999.00000  -9999.00000  -9999.00000  -9999.00000  -9999.00000  -9999.00000  -9999.00000  -9999.00000  -9999.00000  -9999.00000  -9999.00000  -9999.00000  -9999.00000  -9999.00000  -9999.00000  -9999.00000  -9999.00000  -9999.00000  -9999.00000  -9999.00000  -9999.00000  -9999.00000  -9999.00000  -9999.00000  -9999.00000  -9999.00000  -9999.00000  -9999.00000  -9999.00000  -9999.00000  -9999.00000  -9999.00000  -9999.00000  -9999.00000  -9999.00000  -9999.00000  -9999.00000  -9999.00000  -9999.00000  -9999.00000  -9999.00000  -9999.00000  -9999.00000  -9999.00000  -9999.00000  -9999.00000  -9999.00000  -9999.00000  -9999.00000  -9999.00000  -9999.00000  -9999.00000  -9999.00000  -9999.00000  -9999.00000  -9999.00000  -9999.00000  -9999.00000  -9999.00000  -9999.00000  -9999.00000  -9999.00000  -9999.00000  -9999.00000  -9999.00000  -9999.00000  -9999.00000  -9999.00000  -9999.00000  -9999.00000
198.00000    186.00000    171.00000    160.00000    152.00000    144.00000    136.00000    132.00000    123.00000    123.00000    118.00000    114.00000    110.00000    105.00000    103.00000    101.00000    100.00000     96.00000     95.00000     92.70000     93.00000     92.61000     92.61000     95.00000     96.00000     98.00000    100.00000    102.50000    107.00000    107.00000    113.00000    119.50000    123.00000    135.00000    144.00000    146.51000    161.00000    172.00000    185.00000    200.00000    217.00000    233.00000    255.00000    274.99000    301.49000    333.00000    351.00000    387.00000    439.00000    443.00000    491.00000    566.00000    644.00000    693.00000    726.00000    775.00000    841.00000    925.00000   1082.00000   1306.00000   1533.00000   1725.00000   1964.00000   2275.00000   2647.00000   3026.00000   3130.00000   2852.00000   2430.00000   2002.00000   1650.00000   1330.00000   1119.00000    892.00000    761.00000    671.00000    570.00000    510.00000    459.00000    431.00000    396.00000    367.00000    338.00000    309.00000    279.00000    245.00000    231.00000    211.49000    199.00000    185.00000    172.00000    157.00000    145.00000    134.00000    122.00000    110.00000    106.00000     99.00000     89.00000     82.00000     77.00000     73.50000     70.00000     69.00000     68.00000     69.00000     70.00000     69.00000     70.00000     69.00000     72.00000     75.00000     77.33000     77.67000     88.00000    119.00000    131.51000    142.00000    145.00000    145.00000    190.00000    188.00000    206.00000    211.00000    229.00000    218.00000    188.00000    215.00000    230.00000  -9999.00000  -9999.00000  -9999.00000  -9999.00000  -9999.00000  -9999.00000  -9999.00000  -9999.00000  -9999.00000  -9999.00000  -9999.00000  -9999.00000  -9999.00000  -9999.00000  -9999.00000  -9999.00000  -9999.00000  -9999.00000  -9999.00000  -9999.00000  -9999.00000  -9999.00000  -9999.00000  -9999.00000  -9999.00000  -9999.00000  -9999.00000  -9999.00000  -9999.00000  -9999.00000  -9999.00000  -9999.00000  -9999.00000  -9999.00000  -9999.00000  -9999.00000  -9999.00000  -9999.00000  -9999.00000  -9999.00000  -9999.00000  -9999.00000  -9999.00000  -9999.00000  -9999.00000  -9999.00000  -9999.00000  -9999.00000  -9999.00000  -9999.00000  -9999.00000  -9999.00000  -9999.00000  -9999.00000  -9999.00000  -9999.00000  -9999.00000  -9999.00000  -9999.00000  -9999.00000  -9999.00000  -9999.00000  -9999.00000  -9999.00000  -9999.00000  -9999.00000  -9999.00000  -9999.00000  -9999.00000  -9999.00000  -9999.00000  -9999.00000  -9999.00000  -9999.00000  -9999.00000  -9999.00000  -9999.00000  -9999.00000  -9999.00000  -9999.00000  -9999.00000  -9999.00000  -9999.00000  -9999.00000  -9999.00000  -9999.00000  -9999.00000  -9999.00000  -9999.00000  -9999.00000  -9999.00000  -9999.00000  -9999.00000  -9999.00000  -9999.00000  -9999.00000  -9999.00000  -9999.00000  -9999.00000  -9999.00000
190.00000    171.00000    167.00000    154.00000    145.00000    139.00000    132.00000    123.00000    122.00000    122.00000    116.00000    110.50000    109.00000    104.66000    101.50000     97.00000     96.00000     96.00000     93.22000     93.22000     92.70000     92.74000     92.95000     93.00000     96.00000     99.00000     99.50000    102.00000    107.00000    111.00000    115.00000    119.50000    130.00000    141.00000    157.00000    153.49000    161.00000    179.00000    194.00000    208.00000    224.00000    242.00000    258.00000    278.00000    301.51000    330.00000    353.00000    379.00000    408.00000    431.00000    495.00000    572.00000    632.00000    700.00000    748.00000    804.00000    858.00000    979.00000   1094.00000   1256.00000   1470.00000   1709.00000   1916.00000   2146.00000   2474.00000   2691.00000   2738.00000   2608.00000   2289.00000   1979.00000   1682.00000   1347.00000   1111.00000    900.00000    753.00000    648.00000    553.00000    519.99000    491.00000    459.00000    422.00000    377.00000    343.00000    314.00000    286.00000    254.00000    245.00000    226.00000    211.51000    192.00000    178.00000    165.00000    152.00000    138.00000    128.00000    115.00000    106.00000     98.00000     92.00000     83.00000     77.00000     73.50000     70.50000     68.50000     68.50000     71.00000     71.00000     71.00000     73.00000     73.00000     73.00000     77.33000     84.00000     91.00000    112.00000    131.49000    151.00000    160.00000    166.00000    184.00000    214.00000    225.00000    235.00000    240.00000    257.00000    229.00000    204.00000    229.00000    258.00000  -9999.00000  -9999.00000  -9999.00000  -9999.00000  -9999.00000  -9999.00000  -9999.00000  -9999.00000  -9999.00000  -9999.00000  -9999.00000  -9999.00000  -9999.00000  -9999.00000  -9999.00000  -9999.00000  -9999.00000  -9999.00000  -9999.00000  -9999.00000  -9999.00000  -9999.00000  -9999.00000  -9999.00000  -9999.00000  -9999.00000  -9999.00000  -9999.00000  -9999.00000  -9999.00000  -9999.00000  -9999.00000  -9999.00000  -9999.00000  -9999.00000  -9999.00000  -9999.00000  -9999.00000  -9999.00000  -9999.00000  -9999.00000  -9999.00000  -9999.00000  -9999.00000  -9999.00000  -9999.00000  -9999.00000  -9999.00000  -9999.00000  -9999.00000  -9999.00000  -9999.00000  -9999.00000  -9999.00000  -9999.00000  -9999.00000  -9999.00000  -9999.00000  -9999.00000  -9999.00000  -9999.00000  -9999.00000  -9999.00000  -9999.00000  -9999.00000  -9999.00000  -9999.00000  -9999.00000  -9999.00000  -9999.00000  -9999.00000  -9999.00000  -9999.00000  -9999.00000  -9999.00000  -9999.00000  -9999.00000  -9999.00000  -9999.00000  -9999.00000  -9999.00000  -9999.00000  -9999.00000  -9999.00000  -9999.00000  -9999.00000  -9999.00000  -9999.00000  -9999.00000  -9999.00000  -9999.00000  -9999.00000  -9999.00000  -9999.00000  -9999.00000  -9999.00000  -9999.00000  -9999.00000  -9999.00000  -9999.00000
178.99000    169.00000    154.00000    149.00000    141.00000    134.00000    128.00000    122.00000    119.00000    119.00000    114.00000    110.50000    109.00000    104.66000    101.50000     97.00000     95.00000     94.33000     97.00000     93.33000     93.33000     93.00000     93.00000     94.00000     95.00000     98.00000     99.50000    102.00000    106.00000    113.00000    119.00000    124.00000    131.51000    144.00000    153.51000    161.00000    177.00000    181.49000    197.00000    217.00000    234.00000    253.00000    276.00000    296.00000    310.00000    335.00000    362.00000    391.00000    421.00000    447.00000    489.00000    581.00000    685.00000    717.00000    788.00000    798.00000    935.00000   1007.00000   1088.00000   1244.00000   1425.00000   1595.00000   1767.00000   2017.00000   2218.00000   2313.00000   2362.00000   2311.00000   2105.00000   1817.00000   1586.00000   1277.00000   1044.00000    901.00000    770.00000    656.00000    578.00000    541.00000    520.01000    487.00000    445.00000    400.00000    356.00000    326.00000    302.00000    278.00000    254.00000    234.00000    215.00000    198.00000    183.00000    170.00000    157.00000    141.00000    127.00000    117.00000    108.00000    101.00000     92.00000     86.00000     78.00000     74.00000     72.00000     70.50000     70.00000     73.00000     74.00000     74.00000     76.00000     76.00000     82.00000     86.00000     89.00000    103.00000    116.00000    133.00000    155.00000    160.00000    194.00000    196.51000    232.00000    239.00000    260.00000    277.00000    289.00000    250.00000    252.00000    266.00000    270.00000  -9999.00000  -9999.00000  -9999.00000  -9999.00000  -9999.00000  -9999.00000  -9999.00000  -9999.00000  -9999.00000  -9999.00000  -9999.00000  -9999.00000  -9999.00000  -9999.00000  -9999.00000  -9999.00000  -9999.00000  -9999.00000  -9999.00000  -9999.00000  -9999.00000  -9999.00000  -9999.00000  -9999.00000  -9999.00000  -9999.00000  -9999.00000  -9999.00000  -9999.00000  -9999.00000  -9999.00000  -9999.00000  -9999.00000  -9999.00000  -9999.00000  -9999.00000  -9999.00000  -9999.00000  -9999.00000  -9999.00000  -9999.00000  -9999.00000  -9999.00000  -9999.00000  -9999.00000  -9999.00000  -9999.00000  -9999.00000  -9999.00000  -9999.00000  -9999.00000  -9999.00000  -9999.00000  -9999.00000  -9999.00000  -9999.00000  -9999.00000  -9999.00000  -9999.00000  -9999.00000  -9999.00000  -9999.00000  -9999.00000  -9999.00000  -9999.00000  -9999.00000  -9999.00000  -9999.00000  -9999.00000  -9999.00000  -9999.00000  -9999.00000  -9999.00000  -9999.00000  -9999.00000  -9999.00000  -9999.00000  -9999.00000  -9999.00000  -9999.00000  -9999.00000  -9999.00000  -9999.00000  -9999.00000  -9999.00000  -9999.00000  -9999.00000  -9999.00000  -9999.00000  -9999.00000  -9999.00000  -9999.00000  -9999.00000  -9999.00000  -9999.00000  -9999.00000  -9999.00000  -9999.00000  -9999.00000  -9999.00000
